1.85829 -0.354848 7.14678
1.65928 0.327056 6.83733
1.78888 0.115567 6.84597
-0.696862 1.31186 9.11236
1.58317 -0.797071 7.53714
2.99411 0.890323 9.62533
-0.737335 2.84866 8.0961
-0.709957 2.80123 7.96496
1.41012 3.25377 7.81463
1.35006 -0.0751556 7.00447
1.89272 0.0079056 6.90994
0.120375 -2.57875 8.93322
0.188225 -0.926202 7.67538
1.75102 0.00973956 6.88095
1.88216 -0.0722336 6.94548
1.53552 0.334942 6.81895
-0.269742 1.2533 9.08307
-0.733245 2.86506 8.05234
0.103199 -2.57047 8.93745
2.1668 -0.0711987 7.07922
1.39824 0.124343 6.89833
0.21072 -0.535919 7.37009
2.02495 0.0020185 6.94719
-0.378727 0.670204 8.4081
2.38509 1.84747 8.91322
0.565623 1.60028 8.84503
2.26491 -2.51542 8.88565
1.57362 0.647061 7.08664
1.54077 -0.00460289 6.90398
1.70635 0.128376 6.80903
0.544095 2.8888 7.98881
-0.356688 0.684296 8.44004
0.628564 3.1538 7.8674
1.31245 -0.0572196 6.90729
0.799604 3.15455 7.88548
0.440547 1.25105 9.1167
1.77631 0.1487 6.82258
1.45791 0.644217 7.13113
0.835438 -0.562601 7.36967
0.716128 1.39344 9.12097
1.55456 0.354708 6.78311
0.878871 -0.557088 7.36185
2.28586 -2.46327 8.82981
1.25538 -0.986565 7.69612
1.7039 0.146079 6.82887
-1.88048 -0.99988 7.79523
2.6027 -2.34389 8.82731
0.827636 3.15059 7.93751
-2.36909 1.84081 8.78017
1.13614 -3.15627 9.43891
0.0231257 -0.543137 7.34199
-0.22338 3.09863 7.84269
0.223988 -0.788833 7.59553
2.64642 1.88015 8.85594
1.34818 1.73389 8.94597
3.62901 0.832343 9.74972
-1.05451 0.768602 8.69826
1.20307 -0.0399625 7.02409
1.02166 -2.37733 8.82681
-1.54146 -3.17256 9.46033
2.17867 -2.40728 8.81313
1.57753 0.35 6.82667
2.20615 -2.40198 8.82133
2.43739 -2.39053 8.78593
0.513024 2.21809 8.52488
2.94613 1.95691 8.90418
1.91501 1.86369 8.86677
-3.19197 0.827694 9.61336
2.01779 1.91616 8.7102
1.52656 -0.0305016 6.93077
1.05964 3.04824 7.99254
0.888113 4.12314 7.33598
1.58131 0.135103 6.81492
0.914896 -3.16269 9.43045
0.809279 -2.34246 8.75912
0.72476 1.84741 8.78333
1.5108 -0.949442 7.65557
-0.552854 -0.410865 7.27796
3.68877 -0.82115 10.9274
1.62063 2.93966 7.91237
-0.0951833 -0.781809 7.56364
0.321624 -0.618024 7.43159
1.87648 -1.38709 8.01674
1.181 -3.11705 9.35236
1.65866 2.91259 7.94952
0.91687 -0.538389 7.3173
0.499998 -0.943635 7.63129
1.84421 -0.773102 7.49394
0.265586 -2.86587 9.15839
1.46547 0.247383 6.80283
-0.104872 1.87709 8.68687
1.69835 2.22897 8.50901
-0.563558 -0.499233 7.32401
1.53644 3.27852 7.83661
0.453497 3.24698 7.759
-0.245357 -2.54377 8.92618
1.85366 -2.1087 8.53585
0.0681133 -2.6167 8.99928
1.4534 2.19464 8.53034
1.27096 2.87159 8.05046
-0.376599 -0.934555 7.71849
0.194079 -0.268829 7.29659
-0.275287 -2.60587 9.0604
0.0364899 3.22872 7.82907
-0.203968 -2.21951 8.68111
3.32202 1.90552 8.81756
1.6236 3.39719 7.77777
0.656766 1.58666 8.91533
-0.174701 -0.280862 7.22692
-2.27183 2.04032 8.51567
-0.488403 1.08088 9.04017
0.0160576 -0.566968 7.38007
-0.430994 -0.411916 7.25254
1.18521 -2.16504 8.56922
1.48494 3.29638 7.85245
1.6556 0.115829 6.84762
1.38028 2.78325 7.99983
-1.1773 -2.65294 9.00235
1.83437 -2.16914 8.64373
-0.863893 1.7227 8.81725
2.82989 1.47049 9.20562
1.66384 -0.0849499 6.93912
0.934781 -0.876628 7.6517
0.519854 2.82644 8.09784
1.14247 0.116985 6.98857
2.0328 2.7875 8.14526
1.56553 -0.0931474 6.98636
1.75395 -0.890089 7.5773
1.79212 -3.03639 9.31649
1.09022 -0.615563 7.38152
-1.8926 -1.03702 7.81782
0.678985 -2.12017 8.61625
-1.46351 -3.01739 9.31204
1.0491 3.42163 7.79471
1.37149 3.41039 7.76356
-0.398098 -0.2792 7.18332
-0.221256 2.05142 8.60104
2.07989 2.7516 8.20796
1.48602 -0.814033 7.53237
0.270126 -0.879655 7.66085
2.21105 -0.520183 7.32541
0.634599 2.72589 8.1511
2.73685 -2.0922 8.64861
1.14593 -1.4559 8.04694
2.8371 1.62873 9.0569
2.05056 -0.0734242 6.98951
1.16039 2.28281 8.51507
1.67196 2.70662 8.1702
2.14886 -0.122774 6.99987
2.01809 -2.0442 8.4957
1.90411 3.89197 7.35402
1.959 -3.00299 9.33213
0.178391 3.44075 7.64866
3.03392 0.930303 9.66418
1.69675 -0.851905 7.55384
-1.89257 -3.37056 9.60489
0.123194 -0.479906 7.28387
0.992825 1.68566 8.89073
0.424675 1.91673 8.61628
0.730849 2.64144 8.15623
0.689821 -2.84215 9.10847
0.730555 1.68074 8.85848
1.28699 -0.0789468 6.99217
0.516452 -2.8657 9.16724
1.29541 -3.36387 9.53255
-0.0653472 -0.711373 7.50487
0.825846 1.75906 8.86294
0.216033 3.53905 7.66946
0.0734327 -0.374441 7.30424
1.67663 3.53139 7.63227
-0.466463 3.91776 7.32568
0.607363 -2.29303 8.78463
0.458664 2.2782 8.44244
-1.21175 -1.31066 7.96077
1.35252 2.27735 8.52054
-1.1346 -0.582725 7.35801
1.16012 3.58644 7.71873
-2.02984 -3.55423 9.72487
0.163269 -0.776824 7.53657
0.412865 -1.47392 8.14408
1.98067 2.06768 8.69355
0.441472 -1.45953 8.07373
0.228145 1.16746 9.1757
-1.43934 -0.692652 7.4875
-0.196809 -1.48756 8.10647
1.51178 -1.49627 8.07039
-0.0126722 -0.628241 7.44248
1.0469 -1.5061 8.06867
1.685 1.71973 8.88481
2.30812 2.40827 8.46142
1.24316 -0.310879 7.17643
0.560445 1.58477 8.90019
0.649241 3.10329 7.93896
0.0540471 2.30768 8.28734
0.732098 3.12372 7.91457
0.750913 3.12059 7.86151
0.710147 -2.39448 8.81241
0.656664 -0.954057 7.6243
1.13553 -3.42569 9.59768
1.0636 3.12227 7.84613
1.19662 -3.17082 9.40479
-0.701537 1.96532 8.6264
0.1535 3.71755 7.49321
1.17715 -3.17564 9.39384
0.591074 2.95986 7.98605
-1.30472 1.40971 8.95246
0.545499 -1.40819 7.97104
-0.498544 -0.350061 7.21755
0.118039 -2.29708 8.7489
0.889142 3.21103 7.93172
0.366387 2.91146 8.03202
-0.507288 2.68769 8.20953
-0.928757 2.24683 8.46433
-0.264691 -2.27241 8.71653
-1.36897 2.85082 8.041
0.894831 2.01011 8.60465
0.277199 1.40134 8.99485
3.91828 1.15086 9.48191
1.821 -1.59368 8.11916
0.0964139 -1.68321 8.20837
0.394697 2.43667 8.31969
1.81608 2.1025 8.5946
1.49013 -1.82018 8.40186
0.242996 3.66268 7.56767
0.218218 -0.86911 7.65493
1.31298 3.28747 7.87009
-0.995714 -3.92132 9.9897
1.21065 -1.77965 8.28079
0.0222683 1.59264 8.90032
0.857173 2.76603 8.14303
-1.60488 2.46062 8.28736
0.150344 -1.38957 8.11529
-1.28015 1.54891 8.84445
0.833073 4.02676 7.35247
2.17795 -1.79631 8.37043
1.23076 2.23198 8.54309
3.82416 2.04272 8.92906
0.227296 3.64001 7.55745
-1.00875 1.68047 8.80996
-0.163873 -0.911609 7.6937
-0.720059 -0.524728 7.38795
1.94545 1.68388 8.92987
1.5835 0.272774 6.82748
0.919593 -2.682 9.10336
0.228064 -1.05359 7.77793
1.17357 -0.121169 7.00998
-1.90773 -1.14558 7.85222
2.16624 -0.596791 7.39328
2.89753 2.00849 8.80419
1.51409 -0.744746 7.52299
0.0275046 3.99801 7.26451
2.20057 -0.380958 7.2199
-3.60064 1.01024 9.35498
0.137896 -2.56755 8.95327
-0.860922 -0.600336 7.41791
-1.8737 1.15302 9.17696
-0.0408207 -0.416929 7.25789
-0.80263 1.6221 8.81435
-2.73249 0.94207 9.35543
-0.947754 -1.00598 7.71316
-1.926 -1.5343 8.15432
0.356831 -1.00462 7.76362
0.84858 -2.68407 9.10582
-2.34154 1.44284 9.0078
0.844346 3.27971 7.87478
1.00857 3.28841 7.90074
0.0547591 -1.33866 7.99518
0.624519 2.92413 8.02259
-0.35224 2.56868 8.15744
0.907728 4.05408 7.3711
-0.63681 1.34704 9.00985
0.527978 1.54874 8.93285
0.869768 4.13217 7.2927
1.10248 -0.393529 7.22484
-2.85361 0.98535 9.45182
0.740701 3.21293 7.91427
0.376793 4.23782 7.13593
0.701192 -2.90615 9.14258
-1.42258 -3.14545 9.4053
0.073476 1.95386 8.63657
-4.90598 -3.72998 11.4107
0.220683 -2.84004 9.13491
2.26449 2.28215 8.5479
0.338248 -3.20139 9.46786
0.490009 1.56473 8.86564
-0.988444 1.726 8.78138
0.350765 2.57367 8.2391
-0.185425 -1.21194 7.92627
-0.416388 -0.355089 7.24367
1.03797 3.79262 7.48211
-1.6147 2.56176 8.17227
0.326053 -3.20503 9.39053
-0.14744 -0.851705 7.61731
2.4464 2.51976 8.36941
1.91152 3.8143 7.4692
0.357094 2.91845 7.97473
1.08015 3.72787 7.57974
1.16513 -1.44642 8.03621
1.8548 -2.1087 8.54303
1.14663 -1.45165 8.04488
-0.88639 4.1409 7.17603
0.287296 -0.838918 7.68985
1.20833 0.0992248 7.05384
1.55247 -0.817793 7.53
3.3389 0.736619 9.81223
0.258537 -2.55907 8.94808
1.16436 0.087124 6.99053
-0.327139 -1.6364 8.1765
0.85052 4.13286 7.3386
0.484531 4.0957 7.27679
0.202576 -0.808217 7.55188
3.70956 0.623841 9.8873
1.59087 -0.803438 7.54708
1.78855 0.110467 6.83498
-1.00171 -3.9447 10.0288
1.7889 -1.46579 8.09498
1.08803 -3.83214 9.86137
1.17832 4.09719 7.39871
1.81195 0.0802726 6.92606
0.0232195 4.02843 7.31265
0.220586 -0.792936 7.56982
1.45374 4.03972 7.34436
0.116296 -0.857404 7.63892
-3.18282 0.82545 9.58866
0.48891 -0.789653 7.5883
0.524925 -0.78671 7.5857
0.741804 -0.789098 7.54675
1.42908 0.612193 7.17158
1.4012 0.117052 6.90524
-0.467981 3.93464 7.35602
0.299777 0.822433 8.9899
1.26266 -1.67068 8.18106
1.54247 0.64875 7.11171
1.57551 0.650711 7.10786
-0.0887671 -0.777858 7.51796
1.52694 0.65844 7.1161
1.10866 -1.56474 8.10856
0.841741 -0.770693 7.48332
1.61097 0.0723093 6.86255
1.37314 0.769057 7.37139
3.73927 0.911813 9.68832
1.40924 -0.867485 7.56821
0.437776 -1.47419 8.14821
3.80885 0.920141 9.69489
0.935466 -3.61473 9.81597
2.99042 0.91318 9.50038
-1.68619 -0.8782 7.65331
1.62394 3.41099 7.79827
1.51967 0.370715 6.84812
1.5271 0.709811 7.16052
1.75014 -1.43334 8.05045
0.169179 -0.885981 7.63046
0.0446547 -0.890091 7.6829
-2.74854 0.951982 9.41505
1.5543 0.356619 6.79047
2.07878 -1.73935 8.27293
1.51458 -0.744141 7.51468
1.40935 -3.47156 9.69111
3.73726 1.02396 9.59609
3.8769 1.02986 9.69743
1.41629 0.0615737 6.98117
1.58193 0.35097 6.84291
-3.6135 1.01735 9.39391
1.52638 0.332728 6.77098
1.21031 -1.77647 8.29357
2.10994 3.62252 7.57159
1.6635 0.329275 6.88229
3.76974 1.06948 9.65483
1.06306 -1.54544 8.11871
-1.54889 -0.712477 7.50932
1.89003 -1.79148 8.33735
0.54428 -1.41697 8.03055
0.253461 3.56015 7.54113
3.07529 1.12336 9.48764
-0.493066 1.08641 9.06893
1.58961 0.054732 6.91285
1.53607 0.0556687 6.85148
-0.528219 1.12171 9.29576
1.56858 0.317833 6.81898
0.17507 3.526 7.55364
-0.219661 -0.694323 7.49447
0.488913 -0.689481 7.4499
3.96058 1.16824 9.59502
1.32555 2.07831 8.61058
1.15197 3.54408 7.63636
1.2074 0.057728 6.90023
1.47231 0.31868 6.81625
0.187951 -0.928042 7.67874
1.5395 0.314459 6.8663
3.53366 1.19121 9.59085
1.75926 0.128429 6.84436
1.39398 -3.32315 9.58486
-1.44284 -0.689977 7.50139
1.505 0.248802 6.81741
1.35749 3.51346 7.68565
1.33348 3.54525 7.75987
3.36538 1.2072 9.52427
0.0461419 2.05604 8.59532
1.87594 3.47263 7.63033
0.229294 1.16799 9.16646
-0.114842 -0.688181 7.52043
-1.92099 1.18931 9.24412
-1.1781 1.18085 9.18614
1.88939 0.022222 6.88274
-0.335985 1.19607 9.10978
-1.58351 -0.949983 7.72019
0.639543 -0.956268 7.70019
1.98684 -1.85302 8.38016
-0.891253 -0.963651 7.75681
0.336474 -3.1975 9.43636
1.63084 0.280069 6.84503
2.20987 3.37473 7.73905
0.441623 1.24915 9.09799
0.412239 -0.643267 7.46762
1.18624 -3.15641 9.35259
-0.270463 1.25759 9.07568
1.99826 0.00559309 6.92616
1.5664 3.32735 7.69579
-1.56437 -0.96835 7.71388
2.04335 -1.4054 8.05545
0.653701 -0.635067 7.43566
1.32489 3.3696 7.81863
1.29788 -3.13899 9.36889
1.36577 3.32334 7.78258
0.45638 -0.634415 7.49977
0.428055 2.3989 8.3993
-2.06768 -1.49269 8.16781
-0.690168 1.31604 9.13722
-1.36444 -3.0983 9.31272
1.47001 3.33261 7.86063
0.882869 3.30616 7.79048
1.3829 3.30604 7.82998
2.65056 1.74751 8.97642
-0.0387554 3.25956 7.74257
1.58634 0.142232 6.86296
2.02826 0.00108395 6.97171
1.84388 -1.88481 8.35191
0.813393 3.28434 7.82656
5.08182 -4.3904 13.3464
0.919384 -2.21619 8.66432
1.51005 -1.9047 8.45038
1.58252 0.248418 6.88091
2.7481 1.37112 9.39397
-0.653922 1.33727 9.07509
2.13236 -0.609341 7.40246
1.39354 3.22621 7.83995
1.83884 3.22536 7.8594
1.44199 3.23358 7.90841
-0.240298 1.34866 9.08528
-1.06328 -0.311637 7.25025
1.5367 -0.0031196 6.93163
1.64593 -1.91348 8.43947
1.85804 0.238053 6.82549
0.796203 3.17991 7.93168
1.62691 0.235279 6.76137
-1.47083 -3.03939 9.36465
1.78999 0.229486 6.80969
0.917208 3.16242 7.93014
-0.861431 -0.60089 7.42524
1.92993 -0.00752736 6.91097
1.29349 -3.00681 9.25905
0.831448 3.14409 7.91814
1.41088 3.11509 7.8885
1.04778 -1.50512 8.08144
-1.87003 1.41439 9.15395
-1.88302 -1.00567 7.79848
0.646904 3.1024 7.92657
1.49156 -1.95298 8.51987
1.63072 -0.0164652 6.91368
-0.949511 -1.0054 7.70955
-2.32842 -3.26101 10.1888
1.64119 0.165741 6.82201
2.17084 -0.594705 7.41708
1.05487 3.0254 7.9254
2.51751 1.46137 9.18769
-2.3399 1.44071 8.9829
0.302256 1.45738 9.07861
1.6646 0.168275 6.81696
2.82258 1.47229 9.1641
2.03181 2.7642 8.16058
0.560669 1.59488 8.97307
2.02927 2.79024 8.11752
1.65479 0.19835 6.84591
0.835947 -2.93512 9.22862
1.61658 2.93459 7.90062
-0.564257 1.45537 9.00676
-0.200632 -1.49059 8.13418
4.08408 -4.15386 13.1328
3.90047 0.286259 10.1787
1.89132 0.195342 6.9493
1.85541 -1.98414 8.44948
1.23603 -1.98429 8.46399
1.1491 -2.91254 9.21677
-1.79344 2.92274 7.95063
0.837886 -0.561334 7.36988
1.65583 2.90006 7.91417
1.41535 2.94063 8.08206
0.541663 2.89502 8.02251
3.69028 -4.10937 13.0904
-0.981848 -1.01872 7.68263
0.882131 -0.550793 7.37466
-1.51013 2.86202 7.93363
0.727104 -2.94342 9.21781
1.38272 0.18243 6.89235
-2.85684 1.50594 9.01784
0.0178148 -0.54259 7.35994
0.9177 -0.539734 7.37793
0.208366 -0.53656 7.3946
-0.708507 2.84384 8.01657
-1.37017 2.85291 8.03995
1.20098 -0.0420966 7.01073
-0.732553 2.84706 8.07622
0.518351 2.82844 8.09871
0.782778 3.30146 7.89489
1.1518 2.78999 8.01756
0.22045 -2.84076 9.1434
-1.48292 -1.04681 7.76089
1.53964 2.77678 8.03267
3.05579 1.58333 9.05976
1.89498 -0.0694309 6.99711
2.03792 2.80164 8.1854
-0.372339 -0.521013 7.38664
0.857277 2.77529 8.16938
2.08693 1.59051 9.03503
0.000774475 -0.516637 7.37521
0.103666 -0.514293 7.32472
0.208834 -1.0711 7.80335
2.2144 -0.514668 7.32605
0.458637 -0.508441 7.37495
2.15192 -0.0739126 7.03088
0.0258672 1.59215 8.88459
2.04567 -0.0733752 6.97618
1.46644 0.255349 6.82609
1.34497 -0.0743678 6.98936
0.567366 1.61649 8.89428
2.02919 -0.0840497 7.03524
3.68142 1.65609 9.14644
-0.479024 2.62377 8.11501
-3.11174 1.61837 8.87159
1.57191 -2.10003 8.58262
-0.128123 -0.497568 7.30519
1.67145 -0.0828166 6.98485
-1.61738 2.61293 8.14594
-1.38373 1.62054 8.84605
-0.819469 1.63935 8.91707
0.708325 1.62479 8.8418
0.0549477 -1.33246 7.96524
-0.912498 1.65868 8.90837
-1.91697 -1.0911 7.82595
0.121139 -0.482218 7.35501
-1.17613 -2.78272 9.19942
1.84086 -0.0915473 6.97593
-1.62516 2.53794 8.08979
-0.0256957 -0.466074 7.34934
1.33974 2.56249 8.19733
0.725544 1.67013 8.78674
-1.06228 2.58952 8.28439
0.985759 1.67359 8.8244
1.38677 2.55215 8.18907
0.960819 -0.465418 7.32209
1.73995 2.55924 8.27544
2.04859 -0.109954 7.01774
-1.20415 -0.454588 7.38546
1.99102 -0.107057 7.01525
-1.01537 1.68229 8.80848
1.50839 -0.107131 7.02611
1.37328 -3.40609 9.58496
1.60164 0.501391 7.00074
1.54183 -0.77592 7.56383
-0.908381 2.5091 8.21104
1.87971 -2.14561 8.61275
1.9633 1.73393 8.90279
-0.437503 -0.414058 7.31696
3.42077 1.74853 8.98928
1.35131 2.4676 8.33086
1.62167 1.74153 8.92165
1.67282 1.746 8.90719
2.14895 -0.123522 6.99413
1.75177 -0.123701 7.01171
0.396965 2.44674 8.35395
3.43869 1.77301 9.0093
1.15472 -0.398864 7.24152
2.07482 -0.132045 6.99306
1.31783 -0.130503 7.06232
0.249443 -0.275369 7.33252
0.445195 2.41299 8.33306
-1.19186 -2.6732 9.06576
-0.105215 1.86957 8.65682
2.52392 1.79291 8.93496
0.913216 -2.65289 9.01549
0.127532 -1.13222 7.80782
1.54754 0.547544 6.97971
-0.830704 -0.390974 7.23477
1.71716 2.38887 8.35316
2.25131 -0.389224 7.22216
2.13023 -0.143075 6.98885
2.24727 -2.22019 8.71247
2.27742 2.41457 8.51455
1.2006 -0.141163 7.05751
-0.751793 -1.14707 7.81095
-0.453506 2.33294 8.33726
2.03202 -0.150193 7.04529
-0.673896 -0.375163 7.28421
-0.0757516 -0.373495 7.26682
-0.928867 2.25862 8.47709
-1.07079 -2.61994 9.02895
2.38131 1.84808 8.91116
-2.3822 1.79516 8.82428
0.89811 -2.22249 8.65225
3.8192 1.87391 9.03837
1.41759 -0.354063 7.15524
2.24155 -0.169038 7.0835
2.16031 -0.169041 7.08919
0.102655 -2.59504 9.0076
2.36969 2.33813 8.59727
-1.54606 2.27265 8.37874
-2.35058 1.84248 8.74628
-0.26654 -2.58417 8.98719
2.72569 2.29447 8.48528
0.461413 2.29056 8.46355
0.074896 2.27166 8.38688
-0.338711 -0.338314 7.24468
0.0543769 2.25668 8.38204
1.15265 2.26607 8.44765
1.67918 -2.26352 8.72266
1.91073 1.86703 8.85369
1.25556 -0.181506 7.08619
3.29087 2.28993 8.72326
0.833099 -2.27131 8.71872
0.452564 1.87189 8.66988
1.38022 2.23161 8.51507
1.66542 -2.27856 8.70316
0.387071 -2.29752 8.77933
2.40771 -0.321657 7.26007
3.3037 2.26316 8.70381
3.34781 1.92755 8.90738
0.512142 2.20656 8.47858
0.105034 2.21008 8.49819
1.88473 -0.192441 7.0819
3.44369 2.2455 8.67096
2.27631 -2.53238 8.95227
0.341916 2.18663 8.44216
0.320077 -0.31907 7.37382
-0.248032 -2.29294 8.7073
-0.191478 -2.51705 8.94138
1.71953 -1.2649 7.8653
-1.25484 -1.19786 7.8734
-1.03343 2.54451 8.20718
2.96672 1.97812 8.98194
3.4269 2.21846 8.73387
2.15344 -0.285513 7.12128
1.2314 2.15472 8.51473
0.930476 -0.200577 7.14414
0.830074 1.94597 8.70554
2.31272 -2.50169 8.96856
-0.388466 -0.2793 7.21644
2.33012 -0.206814 7.09801
2.24078 -0.206452 7.10437
2.1289 -1.25846 7.91327
3.35187 1.97321 8.77868
2.12205 -0.275667 7.12668
3.05611 2.02181 8.84213
2.29546 -0.267668 7.12123
2.27663 2.13403 8.66463
0.45559 2.102 8.5475
3.83081 2.04931 8.94252
0.197569 -0.268534 7.33569
1.0398 -0.259376 7.14771
1.08363 2.08721 8.53159
0.687815 2.09931 8.5694
-2.34291 1.99274 8.60348
0.660094 2.06445 8.46531
0.950315 -0.225748 7.16712
0.804864 -2.34707 8.74085
0.278365 1.40012 8.98225
1.94716 -0.254695 7.16208
-2.35179 2.06606 8.56391
3.04642 2.10282 8.75432
1.08906 2.05041 8.56691
0.52856 2.0539 8.59462
1.13555 -0.235078 7.17153
2.30155 -0.243097 7.1404
0.986774 2.05574 8.64592
-4.08877 -1.77349 11.4077
0.924103 -0.232725 7.15684
-0.280238 3.91456 7.39059
-0.579098 -1.45714 8.09513
-0.717898 -0.529901 7.37686
0.527293 1.54885 8.9141
1.10627 2.81373 8.02328
0.425802 -0.799093 7.57828
-0.555076 -0.41129 7.28866
-3.09011 -0.247609 10.26
0.572491 1.42223 8.97019
3.42972 1.81229 9.04082
3.49867 1.81052 9.02718
-0.151377 -0.86254 7.59364
-3.73352 0.380938 9.83266
0.0501116 -3.16565 9.44266
-0.0745873 -3.67076 9.8625
0.619146 -3.68534 9.90539
0.4952 -0.943825 7.68996
1.0588 3.44531 7.67477
0.177355 3.45577 7.67663
-1.54173 2.31032 8.40852
-0.920882 -0.682554 7.488
-0.38171 -0.935075 7.73857
-0.321974 -0.884689 7.62491
1.30549 1.87176 8.67868
-0.692011 2.95652 7.83628
0.911985 4.05212 7.34973
-3.05742 0.836077 9.51676
-2.15171 2.24987 8.52822
-1.30254 1.40518 8.94145
-0.981378 2.24452 8.43201
1.55353 3.80672 7.41067
2.07616 2.73841 8.14957
1.75362 2.95261 7.98105
0.723782 1.84929 8.77579
-0.43628 3.52067 7.54687
-0.731387 -0.474824 7.34133
1.22371 3.53551 7.63742
0.828652 -2.87915 9.13254
1.53689 3.2739 7.8207
-0.949973 -3.28888 9.51974
2.73505 2.22865 8.51845
1.29832 -3.18735 9.45183
1.98246 3.43566 7.77074
-1.14101 -0.811629 7.55152
-0.112964 -0.548291 7.41255
0.502862 2.46772 8.33256
-1.98008 -1.74467 8.28391
-0.917388 -0.369881 7.24157
0.0170339 -1.42662 8.06383
3.27695 2.23704 8.61055
1.75468 0.257171 6.82668
3.05725 2.7189 8.24048
0.109151 2.20816 8.49567
1.63563 0.28445 6.85424
-0.936892 2.19361 8.35001
-1.47429 -1.0451 7.73772
1.82364 0.246344 6.83476
1.58063 0.24674 6.82195
3.63442 2.23619 8.74576
-0.990548 -3.92431 9.96859
0.213025 -1.07755 7.80913
-2.28957 2.15557 8.44312
-0.988743 2.26229 8.48595
3.44591 2.22845 8.76613
1.53837 0.310624 6.80716
1.57625 0.313101 6.80249
1.67195 0.312896 6.80278
-1.91714 -3.7544 9.91214
1.63621 0.238426 6.8118
1.36998 -3.74168 9.8782
1.66374 0.328054 6.88847
0.510525 -0.718324 7.48975
1.24585 2.17637 8.59947
0.569739 2.24821 8.40901
1.53176 0.331089 6.82001
0.854871 -3.58457 9.65795
0.201431 -1.10632 7.78008
1.64196 3.41888 7.71917
-0.848477 4.06404 7.11415
-2.05312 -3.50801 9.76473
-0.559175 -3.40769 9.53991
1.15972 2.281 8.49885
1.52818 0.371819 6.84681
2.90661 2.16885 8.77087
-0.292247 2.25766 8.37099
-0.88417 -0.958699 7.70496
-0.072564 -0.966516 7.77527
0.0600141 2.24969 8.35042
3.15198 3.02577 8.0642
0.813069 2.25746 8.36434
1.09128 2.08228 8.52973
1.6698 0.170404 6.83357
-1.62975 -0.911318 7.59732
1.34626 0.170989 6.90313
2.35663 3.01332 8.09573
-0.180159 -0.91521 7.70398
-2.31928 2.09645 8.59653
1.57087 0.425807 6.82495
3.70159 0.620589 9.85897
-1.25927 -1.19823 7.88988
0.309432 -3.24848 9.53819
0.484542 4.09337 7.27425
0.463573 2.28537 8.43448
1.5319 -0.773221 7.49448
0.33246 -3.1904 9.43876
1.18799 0.152385 7.00569
-0.696941 2.04981 8.57673
-0.144964 -0.901608 7.61287
1.90447 -3.17358 9.42906
-2.28341 2.04207 8.55594
1.64931 3.38932 7.70335
-0.0697762 -0.890743 7.62902
1.45905 0.463247 6.88278
0.922457 2.29039 8.39835
1.17014 -3.12045 9.35819
0.540414 2.87974 7.97813
1.64546 0.141765 6.81112
1.24787 4.11684 7.36718
-1.697 -0.893652 7.70598
1.5816 0.141845 6.82558
1.17184 4.06739 7.28061
1.3888 2.00851 8.66763
-0.140404 4.05811 7.26852
1.32313 3.51598 7.6961
1.35627 3.51693 7.70254
-0.763 1.7426 8.92103
3.00805 2.02642 8.74389
2.70818 2.34376 8.57084
0.934429 1.99984 8.62613
1.50345 -2.01739 8.55286
3.36129 2.02723 8.80303
0.0598154 2.29372 8.2959
0.734293 2.32761 8.40697
0.889835 2.33199 8.43286
-1.47123 -3.05124 9.38112
1.17014 4.0671 7.3351
3.05 2.02156 8.83151
1.75387 2.99948 7.93739
0.122008 -0.85948 7.60396
-0.243269 3.48099 7.59652
1.72235 -1.27501 7.89027
0.209451 -1.4355 8.11032
1.79164 0.112102 6.86008
-0.113954 -0.854361 7.66368
3.38545 1.99245 8.8672
3.71811 -4.16296 13.063
0.651093 -0.852898 7.66431
0.8325 -2.9417 9.24715
1.78258 -1.31059 7.96466
1.44349 3.9822 7.25324
2.94171 1.98767 8.92061
1.15831 -2.93432 9.26313
3.84482 -4.21273 13.1811
3.82294 -4.2024 13.3042
2.95595 1.95919 8.88457
3.6916 -4.11762 13.0977
-1.16616 -2.7528 8.96161
-0.679566 -2.88264 9.15508
-2.3892 1.91184 8.72441
3.60147 0.817518 9.65731
1.37344 4.00662 7.31635
-0.402414 2.33673 8.22928
1.40627 1.91086 8.77953
-2.07003 0.840241 9.51378
2.26631 2.38216 8.35349
1.42691 3.56934 7.67266
1.18624 3.16098 7.87548
1.45375 0.635705 7.10195
0.196135 -0.810271 7.55773
3.25826 0.868381 9.64372
0.161259 -1.36163 7.94709
1.73786 2.42482 8.46956
2.22343 -0.316657 7.17108
0.678044 -2.80409 9.08746
3.32206 1.89779 8.89889
1.45077 1.86538 8.75417
2.38962 -0.317773 7.21695
1.57863 -0.799164 7.46308
-0.633197 3.15452 7.79211
1.26357 0.0949824 6.98446
-0.340644 -0.338763 7.23757
-1.03727 -0.310899 7.2635
1.57509 0.649582 7.10512
0.625346 -0.803366 7.60861
-1.1623 -2.76431 9.12793
-0.695344 1.81901 8.69833
-2.38243 1.82562 8.74158
-0.972229 3.3501 7.69307
-0.501616 -0.349919 7.20191
-0.719004 2.82445 8.01125
1.4973 0.655659 7.12168
2.38458 1.8551 8.94273
2.3347 -0.292036 7.16921
0.0387012 -1.3938 8.00711
2.1206 -0.270585 7.12604
1.85517 1.80451 8.80627
0.633756 3.1549 7.87358
-0.665202 -0.368566 7.22435
3.04602 1.8235 8.97001
3.22842 0.899983 9.55434
-0.0755653 -0.377935 7.24983
3.76962 0.913939 9.74763
2.50244 1.78114 8.86682
1.04109 -0.261896 7.14381
-0.68618 -0.382705 7.22091
0.846114 -2.64751 8.98014
-0.0185264 -1.42231 8.09353
-0.428408 3.88605 7.29214
2.26248 -0.391847 7.26597
1.57902 1.75441 8.84804
1.29149 3.92632 7.37935
0.173489 3.53489 7.57043
1.60314 1.73556 8.85356
2.30059 -0.264654 7.1282
-2.58555 1.73337 8.84665
1.1503 -0.395445 7.20017
1.96077 1.74837 8.95035
1.74908 -1.43205 8.0727
1.02583 1.71719 8.78979
0.862201 1.73181 8.90701
1.13444 -0.241638 7.16192
0.369503 0.875579 9.07677
0.917689 3.16912 7.93961
-1.26582 -0.786608 7.53057
-0.509676 -0.416544 7.31598
2.01369 0.0728326 6.89538
1.43466 3.19464 7.83274
1.6183 0.0740903 6.90368
0.529067 -0.793537 7.61031
-0.133512 -2.51275 8.87015
0.0776125 -2.52445 8.90313
1.25081 2.81113 8.00086
1.16949 -1.44756 8.05371
3.43092 1.71172 9.02125
1.10271 2.80504 7.99064
0.925232 -0.227316 7.18963
1.14539 -1.45577 8.04136
3.08425 1.69164 9.04275
3.73472 1.70291 9.17986
-0.349303 -1.47237 8.10685
1.74211 3.88529 7.44567
1.08486 -0.218108 7.09669
2.30195 -2.48498 8.90917
-1.19564 -0.458722 7.35889
1.54746 0.0530633 6.89209
1.16491 -0.211434 7.0429
0.960713 -0.467402 7.30967
0.766711 3.13297 7.88093
2.29774 -0.209288 7.08466
-0.025752 -0.468457 7.36153
0.712075 1.62225 8.88407
1.05832 3.04454 7.98697
4.24771 -0.304192 10.4983
-0.0556476 -0.472197 7.26559
-3.10215 1.60682 8.83098
1.43727 3.57514 7.6071
0.83165 3.15959 7.97043
-0.200019 -1.48957 8.10068
2.21733 -2.41621 8.87296
-0.58887 -1.49417 8.12924
0.119914 -0.485953 7.3605
0.701347 2.80618 8.02157
1.0194 -2.35206 8.72781
1.41546 0.0567663 6.95615
-0.128623 -0.497629 7.32167
1.87307 -0.192312 6.98862
2.33228 -0.191119 7.10018
1.3684 0.757432 7.28798
-2.08726 1.56458 8.79327
-0.156996 -1.52064 8.20194
3.79212 0.990536 9.56039
-2.92815 0.988508 9.39471
1.12987 -0.180522 7.13223
1.39835 2.55182 8.2082
0.173926 -0.761464 7.50148
-1.27956 1.54879 8.84656
1.25838 -0.1815 7.06694
0.862698 -0.511244 7.35133
-0.716676 -2.29436 8.69961
3.83147 1.00782 9.55578
2.18705 -0.183687 7.05187
-1.49519 -1.53663 8.20663
-1.62441 2.56371 8.14579
2.21008 -0.519819 7.3313
0.793716 -2.27032 8.65946
1.67557 -2.29804 8.76497
0.892927 -0.517221 7.3378
2.15968 -0.172375 7.05858
-0.366257 -0.518532 7.3418
-3.16816 -0.236149 10.4515
2.10468 3.77571 7.39335
1.4282 3.24601 7.79606
0.260493 3.60283 7.62251
1.12184 -0.149738 7.08042
1.30758 3.25532 7.80014
2.03667 -0.15116 7.07831
1.61795 0.0362247 6.94415
1.05846 -1.54158 8.07031
1.14611 2.79718 8.05521
3.77224 1.06414 9.64979
1.57362 0.0319805 6.88067
1.61113 -2.18623 8.61375
2.07547 -0.153333 7.00901
2.24319 -2.20536 8.67979
-0.0754891 -1.56882 8.15994
0.882824 -0.547859 7.33877
-1.25863 -0.555133 7.35992
1.24199 3.26854 7.79576
2.12678 -0.140805 7.07994
0.835885 -0.56394 7.38624
1.87802 0.0273268 6.92982
-2.84297 1.49832 8.99435
1.40843 -2.12093 8.55213
-2.39832 1.50116 9.08253
2.07828 -0.12881 7.01476
2.5505 1.48459 9.1363
1.74111 -0.121716 6.96984
1.83668 -1.61288 8.2095
3.33251 1.07673 9.46908
0.119052 -0.576305 7.38945
0.809696 3.25887 7.76206
-1.16049 -0.583095 7.46131
1.81304 -1.62943 8.21179
1.26828 -2.02692 8.42696
2.44111 1.45938 9.10547
2.03887 2.81643 8.19426
1.99962 0.00600674 6.91338
1.63661 2.78058 8.07539
-0.334213 -1.65617 8.28733
0.570817 1.43246 9.01787
1.20088 2.7685 8.04797
2.46455 -2.04392 8.55953
1.28121 -0.108234 6.96914
1.91613 -2.0231 8.52157
0.0895695 -0.722334 7.52559
2.05446 -0.112557 7.03752
-0.863012 -0.600529 7.43365
0.207084 1.41904 9.1675
1.98856 -0.104751 6.98083
-1.88854 1.42207 9.21348
1.76782 0.00827079 6.91728
3.06373 1.11066 9.41686
-1.80356 1.38871 9.10661
0.693326 -0.616157 7.41242
-0.230915 3.10644 7.91601
1.49166 -1.94696 8.47677
1.39026 3.30319 7.83294
-0.360536 -1.65454 8.13353
0.456317 -0.635135 7.47296
0.531631 -0.719666 7.4939
-0.670886 1.30231 9.02067
1.64504 -1.90609 8.41825
2.02119 -0.0808796 7.05823
1.97247 -1.88803 8.40173
0.650072 -0.633345 7.38876
0.407752 -0.648055 7.53718
1.35105 -1.70147 8.2787
2.0488 -0.0784048 6.98012
-0.328622 1.27582 9.05427
1.47014 3.32113 7.84725
-0.269951 1.27935 9.19021
-1.62695 -1.88485 8.46944
1.53376 -0.00408592 6.91729
1.97553 -1.84043 8.30951
1.92752 -0.0101891 6.89571
-0.294452 3.62597 7.54102
1.89609 -0.0703334 6.99776
2.13923 -0.0730237 6.9906
-1.54737 -0.712208 7.5064
1.74577 -0.0150873 6.9104
0.445675 1.23355 9.05093
1.31434 -0.0610216 6.93878
1.66944 2.71336 8.18412
-0.128323 1.23876 9.18722
-0.456942 -0.675277 7.46542
-0.110283 -0.684314 7.4382
-0.227237 -0.689239 7.50178
-1.16562 1.17544 9.12359
1.66529 -1.80954 8.40254
-0.925563 -0.689588 7.52111
-1.9214 1.19178 9.24613
2.56363 3.09019 7.99305
3.38851 1.21172 9.59196
1.36812 3.30911 7.7672
0.853174 2.74509 8.06857
1.58342 3.64676 7.54147
0.490502 -0.697184 7.50197
-0.165036 1.1514 9.10178
1.64296 -0.0185883 6.96409
-1.89372 1.1628 9.23596
2.10301 1.60569 9.13451
-0.050324 -1.09294 7.85279
3.02527 2.7469 8.18391
-1.43435 -0.68741 7.46814
1.2044 3.99473 7.35952
-1.93987 -3.64902 9.81775
-0.578846 2.29547 8.42751
1.25351 2.83613 7.94601
0.914616 4.04766 7.35463
1.22687 3.53091 7.63388
0.125976 -2.29761 8.71414
1.34213 4.00423 7.31763
1.23682 -0.311255 7.11374
-3.22178 -3.61084 11.6653
2.82714 1.4743 9.20005
-2.73483 1.65085 9.05624
0.438729 -0.573445 7.34808
-1.63639 -1.00347 7.72886
-3.17709 -0.187078 10.2919
-2.56322 1.54787 9.03662
3.48764 2.6504 8.38728
-0.0910835 -0.779525 7.54673
-2.6203 1.12488 9.14494
-0.648897 -2.06793 8.58417
0.054233 -3.16829 9.44695
1.57172 0.424308 6.8427
-4.22815 -3.34041 11.1418
1.15108 -2.88954 9.28827
-0.688358 -0.383156 7.27523
-1.04016 -0.308941 7.24293
-0.391112 -0.284498 7.22412
2.31751 -0.266213 7.19109
-0.0136741 -0.475477 7.34605
0.122761 -0.488996 7.35781
0.913846 -0.494634 7.32139
0.857607 -3.61203 9.70829
2.81717 2.82199 8.00615
-0.717921 2.8169 7.96698
1.17286 -0.207397 7.09325
2.30022 -0.20437 7.06241
2.22221 -0.19446 7.08104
0.844542 -0.562335 7.36978
0.893111 -3.54494 9.7219
3.04047 2.72539 8.28882
2.08778 -0.157865 7.02959
1.13155 -0.145344 7.13163
1.17879 -0.129634 7.04859
0.699761 -0.614557 7.41515
2.15232 -0.137274 7.04937
0.460107 -0.626026 7.38623
0.863807 4.17057 7.44868
-1.7906 2.91656 7.89649
0.414282 -0.649279 7.47771
2.11753 -0.117722 7.04632
-0.502314 2.66545 8.19095
1.29132 -0.0757926 7.02052
2.05742 -0.0735455 7.00557
-1.54835 -0.711942 7.51483
3.3614 1.93854 8.93178
2.16395 -0.0719232 7.08349
1.32816 -0.0598463 7.02241
1.90601 -0.0133081 6.96869
-0.500271 2.61227 8.1565
1.93255 -0.00457003 6.89633
1.76079 0.0102723 6.90455
0.215084 -0.77942 7.54915
1.88108 0.033687 6.91881
1.21843 0.056534 6.93673
1.54088 0.0553307 6.85923
1.27919 0.0656646 6.95278
1.61185 0.0692165 6.86357
0.12721 -0.854259 7.57034
1.26641 3.12362 8.01221
0.0503668 -0.890981 7.64915
1.18726 0.0940714 6.95778
1.25854 0.09074 6.96704
0.191914 -0.92887 7.63802
3.07774 1.67894 8.98073
1.66086 0.167476 6.78151
0.634691 3.15321 7.8888
-1.87884 -1.01886 7.77312
0.336031 -1.01396 7.69804
1.74878 0.21616 6.8109
1.43469 3.19184 7.82596
1.63799 0.240241 6.82829
1.59442 0.249165 6.84268
1.62671 0.284056 6.7803
1.40007 3.24469 7.85114
1.53892 0.307089 6.79817
0.881055 -1.207 7.8273
3.06489 1.65396 9.07654
1.72601 -1.26871 7.89177
0.427703 -1.27024 7.95077
1.49344 0.463337 6.91011
0.432232 2.39894 8.37459
-2.06822 -1.52846 8.1684
1.49523 0.652531 7.09252
1.13509 -1.54939 8.13475
3.77732 0.89731 9.65814
3.75811 0.911124 9.69648
2.87547 2.0363 8.82036
3.74825 -4.20762 13.2085
1.57015 0.699286 7.15846
1.52605 0.722753 7.18227
-2.74091 0.955377 9.37165
1.57711 0.733985 7.19695
-0.433802 3.88835 7.28803
1.28554 3.89926 7.34021
1.52403 -1.91124 8.47527
1.49233 -1.94327 8.46499
-2.69362 1.09806 9.1639
1.27319 -1.97466 8.42475
1.32919 -2.03963 8.51506
1.26973 -2.04719 8.49641
-0.161407 1.16132 9.17869
-2.27117 2.03317 8.61174
-0.346819 1.2275 9.19071
0.897407 -2.21593 8.64208
-0.345575 1.27156 9.11589
-0.253226 1.27637 9.13034
0.833034 -2.2766 8.72283
1.04285 -2.84168 9.1674
2.09608 3.57462 7.53798
2.11467 3.60993 7.5598
2.67145 3.8362 7.40314
0.069942 -2.52209 8.90953
-0.139204 -2.51278 8.88042
-1.8901 1.42592 9.22941
0.221596 1.40268 9.06266
3.63117 1.44499 9.36521
0.115625 -2.61054 9.00468
-1.1567 -2.7649 9.1163
2.44082 1.45362 9.08746
-1.43026 -4.0438 10.1898
2.11397 3.8174 7.4652
-1.20196 -2.74693 9.114
-2.39238 1.91016 8.73306
-3.03399 -0.013428 10.0399
1.43674 3.34278 7.83591
1.21259 -0.0416898 7.0476
0.579886 1.4892 8.92246
0.0879715 -0.73053 7.57272
1.51619 -0.727988 7.56132
-1.19 -2.65953 9.02306
1.09791 2.06003 8.62552
2.64335 3.71635 7.39675
1.03115 1.71872 8.79844
-1.04824 -2.60404 8.96809
0.532101 -0.716892 7.53805
1.34701 0.0774711 6.87624
0.426486 1.59676 8.88466
-0.0785306 -0.88944 7.63088
-0.141665 -0.89654 7.60383
-2.85446 1.51753 9.03104
1.68071 1.71967 8.94287
0.831317 3.16711 7.98896
1.78502 0.110852 6.81953
1.17841 4.07033 7.28647
1.50311 -0.11038 7.01264
1.78075 -1.31346 7.95396
-0.256285 -2.51077 8.83627
1.08626 2.08458 8.51899
1.40717 2.57232 8.29458
1.3503 2.57229 8.28418
1.69143 0.142338 6.76786
-3.31391 1.40018 9.1257
3.73985 1.69523 9.1632
-0.434975 3.64205 7.51804
-0.110053 -2.49344 8.91548
1.19003 3.15645 7.8652
-2.40031 2.10245 8.49887
0.817836 1.95591 8.73889
0.913455 3.13717 7.88314
3.89766 0.276913 10.148
2.06961 1.97383 8.80179
1.48525 -2.4544 8.84662
-0.274577 1.37083 9.33751
1.57222 3.60345 7.46373
1.32408 -0.119018 7.06404
-0.641148 3.1765 7.85377
-0.509936 2.67724 8.09806
-0.280374 3.57709 7.44304
0.883148 3.17649 7.85167
-0.784348 1.71797 8.71306
-0.891231 1.62207 8.7523
2.70893 1.33796 9.21929
2.45262 2.54481 8.38002
0.622996 3.05474 7.91062
-0.811711 3.51411 7.36105
4.21073 0.338164 10.1675
0.21517 3.63319 7.63892
-3.20885 -0.195261 10.4404
2.35329 3.20508 7.85066
0.733572 -2.5126 8.97037
-1.15501 -0.582814 7.42589
1.75511 0.251918 6.83594
-0.733142 -2.32148 8.81869
-1.91726 -1.14605 7.88414
0.266911 3.60341 7.62454
-0.256319 3.54345 7.49703
3.48939 0.387879 10.0542
-3.17024 -0.232306 10.4274
0.53207 2.86884 7.95936
-1.7059 3.55418 7.52058
0.969942 1.96758 8.6377
0.9092 -0.541833 7.28367
0.762626 2.2898 8.43528
4.27977 -0.304487 10.5973
1.25057 2.82853 7.91276
3.06405 2.48266 8.43734
3.3258 1.29998 9.38658
2.69028 1.28529 9.32129
0.701978 -2.85273 9.14936
0.451915 1.23903 9.08211
-0.129716 1.2282 9.11106
3.32139 1.90399 8.90373
-2.5477 1.74741 8.65985
1.67384 2.73182 8.2313
-4.04714 -1.76851 11.3176
0.503069 1.61849 8.90239
0.402498 -2.65701 8.9647
0.631575 1.78005 8.80598
-2.42855 1.95773 8.49706
1.84909 -2.16257 8.67008
-0.763414 -0.479793 7.39914
-0.137501 -1.32248 7.97863
-0.91218 3.23659 7.6806
-1.93861 1.20231 9.31258
-2.63497 1.18382 9.11998
0.652365 2.39123 8.2957
-1.1544 1.16298 9.08179
0.0385746 -1.34255 7.96855
1.11274 2.83468 8.07433
3.3394 1.19453 9.42545
0.158467 -1.36425 7.98604
2.74327 2.43007 8.50088
2.50237 3.51538 7.57537
3.67723 1.64366 9.12061
-0.746108 -0.433719 7.23163
0.698582 2.79729 8.01536
-1.20519 1.16052 9.22578
0.360553 -0.619793 7.36535
-1.90514 1.16728 9.30019
-2.63298 1.80919 8.80128
-0.411914 2.36432 8.30725
-2.01784 0.74907 9.47035
-0.139898 -1.46608 8.10822
-0.347194 2.24773 8.44214
0.855469 2.75612 8.1003
-0.248747 3.50279 7.63389
3.73284 0.821492 9.75732
-3.07734 0.836938 9.58739
-2.03273 0.815697 9.38542
1.44654 1.86212 8.71168
1.15103 2.79981 8.06013
-0.880496 -0.379409 7.13527
-0.154343 -1.51738 8.18261
3.26969 0.886204 9.74535
-0.303908 2.27037 8.45539
2.94881 1.83512 9.00229
1.14926 -1.49838 8.03138
-1.50523 -1.54725 8.24788
2.76042 2.30543 8.59519
0.470831 1.56573 8.85294
1.12183 2.78168 8.04293
1.11842 0.941134 8.12315
-0.978287 3.35226 7.69747
1.65283 -1.91891 8.48457
1.25597 4.00287 7.45722
-3.28255 -0.528853 10.7379
-0.458582 3.91952 7.29655
1.6704 3.34821 7.68798
-1.63105 -1.88536 8.4722
-2.9796 0.892805 9.53034
3.24373 0.905459 9.61888
0.627479 0.880368 9.20346
1.20296 2.76518 8.04857
1.42682 -0.354399 7.16834
-1.09629 -0.345614 7.29439
-2.33094 1.98841 8.56115
3.05031 1.83358 8.98775
-0.0423871 3.33352 7.57593
1.37442 -1.81778 8.43322
1.647 -1.79029 8.30189
-0.690506 -2.9115 9.25489
2.711 2.34097 8.53351
3.86156 1.0185 9.62803
1.42736 0.772954 7.29877
1.34754 -1.70013 8.26602
1.20465 -1.66939 8.13594
-2.82887 0.74133 9.45556
0.312467 -3.21777 9.46834
-1.27407 -0.79169 7.54221
1.54198 1.70087 8.92399
-0.137659 4.03405 7.22372
0.643334 -0.846283 7.63241
2.16448 3.78623 7.37706
0.569185 1.42557 8.99141
-0.326297 -0.89794 7.69813
1.94395 1.72803 8.83834
-0.115529 -0.687176 7.47656
1.94081 -0.672509 7.37794
-1.6114 -3.11695 9.35305
0.828594 2.20532 8.37652
1.58423 0.145599 6.84838
-0.27316 3.46462 7.60428
-0.347731 3.52851 7.54933
-2.17865 2.51309 8.20178
1.75964 3.02824 7.98542
-0.163935 2.25853 8.49431
-0.0386111 1.11677 9.21722
1.4126 1.92897 8.86489
-1.39941 -1.9977 8.4481
0.796548 -0.53567 7.38066
0.489609 4.09714 7.28702
1.48681 0.224905 6.82603
-0.847296 -0.600031 7.37499
1.8269 3.17565 7.7514
1.66551 -2.28562 8.70042
1.58586 3.23317 7.85125
2.38462 1.85099 8.93031
1.26004 -0.181876 7.11039
2.43591 1.8947 8.83966
1.25766 3.29166 7.87743
-1.3089 1.57256 8.98264
1.07796 3.5655 7.6252
-1.04139 -2.66726 9.05471
1.77512 -1.27451 7.86908
-0.0680019 -2.87655 9.23399
1.99869 -0.254507 7.05126
3.04321 2.75676 8.22068
1.70092 3.27809 7.65227
-0.910337 -1.35726 8.03471
-2.34233 0.625389 9.55605
-3.54888 -0.663242 10.6176
0.335813 2.20135 8.4154
0.953848 -0.461911 7.24175
0.680594 1.49985 9.05856
0.388204 3.25602 7.76166
1.33246 -1.27841 7.99645
-2.20929 2.46241 8.26478
1.24945 2.81378 8.00142
-1.91553 -2.10458 8.65689
1.88072 -1.78295 8.28126
0.506722 2.19021 8.43716
2.11992 -5.3373 11.0331
-2.17712 2.18412 8.52596
1.87027 -0.194251 7.015
2.83686 2.51878 8.34879
-1.29665 3.44119 7.65977
-2.49162 1.87956 8.66698
1.61538 2.74576 8.14182
0.373029 0.865818 9.01036
2.09014 2.38419 8.58034
3.84806 -1.29653 11.2118
-1.38068 2.90048 7.91941
-1.45982 -0.695986 7.57696
1.91306 -2.0186 8.49584
-1.82591 -3.49068 9.74049
-0.333865 3.62085 7.52747
-2.4916 2.1072 8.46656
1.8864 3.09776 7.7793
-1.7648 -3.38716 9.67222
-0.890016 -0.96859 7.74391
-0.457682 2.34543 8.38242
2.26328 2.11144 8.57667
1.36444 3.24288 7.75176
-0.704969 2.75329 8.07164
2.89156 2.02971 8.84501
1.57447 1.73021 8.77141
0.707946 1.6662 8.7893
0.217381 1.41407 9.11288
-1.79788 1.36498 9.05138
1.83692 0.187654 6.80371
1.64943 0.157219 6.77051
1.2189 0.0539533 6.97533
1.61459 0.0338865 6.9823
1.86468 0.0245557 6.8545
1.32252 -0.0644466 7.00751
1.96669 -0.090566 6.97519
2.22619 -0.152603 7.13329
1.07971 -0.22438 7.09493
-0.391365 -0.29932 7.18947
0.857282 -3.61069 9.69996
-0.692572 -0.392362 7.29089
0.860311 -0.514037 7.31686
-1.65205 -0.917311 7.63236
-1.0029 -1.02502 7.75216
-0.322979 -1.7211 8.40877
0.105331 -2.59914 8.95442
5.13267 -4.35608 13.5307
-1.44048 -3.0347 9.23849
-0.330325 1.19398 8.98607
0.0435638 3.994 7.23108
-0.916315 1.56944 8.85227
-2.24284 2.14645 8.71633
-0.455347 3.88057 7.2378
-0.432987 3.90654 7.34619
1.27615 3.88211 7.32374
-0.209776 3.83488 7.35245
2.67081 3.82143 7.40836
0.319685 -3.20146 9.41267
1.48495 3.84549 7.47956
2.10929 3.81982 7.4933
2.71017 3.79515 7.47757
-0.734985 1.34222 9.03307
-0.422541 3.60302 7.44676
-1.40145 -3.12438 9.36394
0.212637 3.58562 7.55261
2.08379 3.55459 7.51132
-2.28909 1.71187 8.49464
-0.793474 3.55314 7.51464
-1.71205 3.54966 7.5353
-1.38178 -2.08038 8.5329
1.06432 3.49336 7.50462
-0.817228 3.46546 7.4556
2.49849 3.50414 7.57286
0.954136 -0.468175 7.35002
4.51746 -4.26793 13.4857
-0.0624037 3.35254 7.6372
1.15642 -2.88153 9.11455
0.0464668 -0.469927 7.374
2.72272 3.2633 7.68746
-0.919301 3.22479 7.67605
1.30405 3.27234 7.8673
1.43712 3.17259 7.8029
1.19847 3.20414 8.01835
-1.03543 3.06231 7.8526
-1.1627 -2.7687 9.12453
0.7006 -2.46623 8.9022
1.72661 2.95126 7.97793
3.28748 2.9226 8.13084
-2.72662 1.18331 9.21893
-1.59558 -2.78391 9.26886
1.26197 2.86014 8.0074
3.31922 2.88484 8.21061
2.96844 2.8972 8.25266
-3.66589 -3.40581 11.623
2.91978 2.83332 8.2079
1.20208 2.75957 8.03666
-1.18826 -5.09876 10.4593
-2.22868 1.86475 8.65821
0.851388 2.74985 8.11334
0.715981 2.70097 8.06818
1.65887 2.6899 8.12788
1.39761 2.54233 8.23904
-0.165881 -2.53181 8.9827
1.4884 2.6276 8.18371
0.433623 2.4068 8.27207
2.42882 1.30284 9.26815
1.56864 0.202424 6.90119
0.651325 2.37304 8.28641
-0.423647 2.35469 8.33116
-1.44922 2.34814 8.31131
0.43259 -0.583151 7.32546
1.18609 0.152729 7.12755
2.71865 2.35368 8.57312
0.929936 2.29915 8.38116
-0.589238 2.32372 8.52733
0.802576 2.27217 8.47305
-0.174785 2.24281 8.44412
-0.969111 2.22596 8.37247
0.491617 2.83916 8.11741
-0.340401 2.21461 8.36825
-0.228293 -2.25926 8.63234
0.826917 -2.28562 8.73089
0.423321 3.28343 7.78426
-2.39997 2.0764 8.45621
-2.33014 2.08984 8.64418
-2.32076 2.00279 8.42035
-2.29268 2.00979 8.57491
3.30739 2.04107 8.80902
3.03506 2.04859 8.84627
-2.38487 2.02006 8.71731
1.46529 -2.16874 8.63795
0.958482 1.96827 8.64986
3.39452 1.98757 8.90058
2.06698 1.97518 8.83133
2.89587 1.92424 8.74436
1.25617 -2.0459 8.40433
1.4849 -2.08042 8.55105
-0.747096 1.91718 8.74445
1.14139 -2.83733 9.12242
1.39602 1.90742 8.76108
-2.508 1.87349 8.71281
1.96154 -0.0490384 6.90672
1.15459 3.10651 8.04129
-0.703571 1.81659 8.66126
1.73406 -0.0640781 7.00747
1.26511 -1.99158 8.46514
1.48961 -1.97909 8.47984
3.01073 1.81876 8.9326
-2.40901 1.77907 8.81066
-2.62155 1.79375 8.92131
2.00617 -1.89794 8.34624
1.82689 -1.88729 8.37494
-1.62532 -1.8708 8.45707
3.02903 1.76159 9.04803
2.95663 1.76552 9.04728
-2.03875 1.48386 8.9009
1.85758 1.65942 8.85216
1.64614 -1.79172 8.31675
-2.04462 1.54314 9.09547
-0.905159 1.62166 8.74605
1.07073 -1.57741 8.01634
-2.96632 1.49767 9.20861
0.497911 1.60447 8.87449
0.460268 1.56245 8.83188
1.20017 -1.69154 8.24844
1.33315 -1.6882 8.24277
-1.93259 1.56682 8.83237
2.26333 1.54841 9.04946
0.595363 1.55532 8.98228
-0.499488 1.57551 9.08533
2.51681 1.44449 9.11139
-1.46351 -1.53977 8.12232
-1.99411 -3.44911 9.56891
-2.08254 -1.5411 8.2324
3.10585 1.68766 9.1096
-0.179649 -1.51348 8.11425
1.04745 -1.51755 8.10041
1.66606 1.70246 8.87783
1.14562 -1.51274 8.09362
2.7248 1.34788 9.32156
3.26789 1.34424 9.42393
-0.675109 1.28549 8.98303
-0.357032 1.28244 9.21026
1.98315 -1.85525 8.39064
3.29857 1.28199 9.34426
2.66606 1.2637 9.24587
0.440542 1.25345 9.17722
1.31283 -1.43412 8.0148
-0.0168146 -1.39665 7.96059
3.39841 1.21689 9.63683
-0.169975 1.16088 9.14823
0.0169972 -1.36026 7.97582
0.162823 -1.36126 7.99106
3.04505 1.09332 9.3801
-0.148084 -1.47395 8.16445
-2.76501 1.04096 9.47689
-2.80587 1.01823 9.42275
-2.91605 0.987625 9.34566
1.03594 0.865198 8.26942
3.83681 0.972278 9.66083
-2.831 1.24301 9.1991
0.451279 1.86318 8.6435
3.80014 0.925655 9.82224
1.5301 0.642294 7.11718
0.879139 -1.2188 7.89385
-3.04604 0.815367 9.51784
-3.11457 0.79326 9.43657
3.75055 0.817875 9.89871
-1.95305 0.765993 9.35614
1.5621 0.563323 7.06809
3.71423 0.666105 9.74982
1.84819 -2.14987 8.63359
1.6248 0.397932 6.83855
3.04123 2.00394 8.81263
1.71803 0.312705 6.88412
-1.9502 -1.15439 7.96165
1.54263 0.308282 6.78431
-2.70223 1.12541 9.3907
1.4733 0.314629 6.84306
0.190084 -1.10819 7.78318
1.61771 0.267755 6.75059
1.81557 0.241451 6.82971
1.59521 0.239485 6.83621
1.48917 0.226516 6.85845
1.74092 0.216209 6.80468
3.88049 0.275895 10.1433
-0.484298 -1.02371 7.73858
1.36499 0.0827152 7.00062
3.88639 1.02925 9.7433
1.27793 0.0656456 6.993
1.29915 2.1971 8.58995
1.92515 -0.0187674 6.92524
-3.10692 -0.0289159 10.2319
-1.43481 -4.09273 10.1316
1.76179 -1.27722 7.84578
-0.179819 -2.31909 8.79152
1.31973 -3.8346 9.93889
1.31758 -0.135419 7.05734
1.17398 -0.135332 7.05299
-3.1144 -0.238632 10.2552
2.21606 -0.195372 7.10035
1.12611 -0.190813 7.10855
1.16799 -0.207294 7.10364
-0.137718 -0.90229 7.6318
1.13832 -0.243358 7.19816
2.30068 -0.264791 7.13806
2.10401 -0.269557 7.16059
-0.0921871 -0.891461 7.65627
0.0469926 -0.879111 7.55016
2.7333 2.26544 8.51152
0.886058 -3.49578 9.5912
-0.105942 -0.848997 7.55197
-0.323417 -0.840583 7.64626
-1.08288 -0.348228 7.22936
0.278087 -0.843422 7.62336
1.42026 -0.360567 7.22386
-0.51188 -0.361652 7.23906
-3.20698 0.87047 9.65764
-1.29286 -0.797871 7.59986
-0.754298 -0.480708 7.3217
-2.04078 0.762468 9.50397
0.906378 -0.494212 7.32022
0.120185 -0.503285 7.36981
3.75981 0.685022 9.76752
-3.35323 -0.764668 10.9705
-1.15349 -0.579851 7.40198
3.05655 2.47223 8.40774
-0.859667 -0.613183 7.45607
0.524508 -0.729577 7.60328
0.695148 -0.626927 7.45236
0.361915 -0.623583 7.41867
0.648697 -0.638438 7.43242
0.452246 -0.634921 7.41018
1.59125 -0.647906 7.34042
0.412047 -0.664081 7.52413
1.93852 -0.685311 7.42133
2.37961 -2.47658 8.79877
1.18066 4.12038 7.37702
1.62878 0.200972 6.79782
-0.511147 2.68338 8.1079
1.61419 2.73284 8.14826
1.60496 -3.3456 9.6081
1.92188 2.89571 8.05648
2.03969 2.91839 8.0703
2.00198 0.0242889 6.84947
1.26859 -0.00593526 6.9412
0.909148 -0.543028 7.34802
0.942684 3.16969 7.77971
2.29137 -0.164548 7.15484
-0.0761923 -2.87807 9.24521
1.58046 3.18484 7.73992
1.25897 -0.18317 7.13638
-0.0555797 -0.471681 7.22146
-1.8017 3.3614 7.59241
2.47413 3.40453 7.68772
-0.770707 -0.450945 7.33876
0.996811 3.5179 7.69648
-0.306291 3.54229 7.52336
1.35189 -0.806514 7.58666
3.54091 1.38761 9.60035
-0.657662 -5.32572 10.5934
-1.18059 -5.08049 10.4424
-1.14114 -5.05249 10.541
1.79391 0.0309961 6.85342
0.387161 -0.57754 7.3887
-0.47215 3.92914 7.31284
0.859497 -3.64362 9.76998
-2.1344 -1.50529 8.25177
0.913314 -3.5881 9.82775
1.15825 0.137651 7.04172
-1.96597 -3.42031 9.47406
0.095547 1.13169 9.14771
1.39161 -3.40944 9.51703
-1.92324 1.4031 9.03798
1.27694 3.8949 7.34198
-0.718888 -3.02274 9.3923
-0.728226 1.66741 8.67185
-2.05097 2.0356 8.56069
-2.37298 2.05231 8.60258
-2.29415 2.00862 8.61633
3.36611 1.97136 8.822
2.9309 1.9543 8.86844
-2.29573 1.77541 8.6199
3.01222 1.81083 8.92167
-2.39326 1.76301 8.74981
1.56803 1.71256 8.68687
-0.794441 1.68504 8.68835
0.109085 2.19179 8.4565
0.708835 1.65878 8.76109
1.8465 1.64899 8.8156
-0.907191 1.62067 8.76935
3.05342 1.62189 8.91043
-0.538904 2.22893 8.34078
1.16291 -2.90625 9.1592
-0.0124803 2.26454 8.46983
0.501309 1.59062 8.85034
0.0486454 2.29243 8.50835
0.457292 1.56556 8.81902
0.583714 1.51464 8.81417
2.70222 2.34552 8.54236
0.523959 1.39953 8.88027
-1.81077 1.36238 9.02948
2.42337 1.29748 9.23284
3.28024 1.26371 9.31779
-0.347282 1.22095 9.1356
3.27234 1.24588 9.49094
3.07439 2.49195 8.48377
-0.169212 1.15192 9.10877
-2.69044 1.13259 9.34103
0.0956254 -2.59654 8.92681
1.39221 2.54514 8.27277
0.636693 0.970768 9.26489
-0.427368 3.60787 7.46026
-2.68561 0.954894 9.16913
-2.90968 0.969045 9.31575
0.0731017 -2.4914 8.78252
1.5407 0.717339 7.24203
1.57904 3.61633 7.51167
3.78721 0.917066 9.76138
-2.95742 0.892613 9.46877
-2.0015 0.782702 9.51405
-0.861913 3.6396 7.6065
1.53958 0.542226 6.98722
-1.6143 2.5681 8.13923
1.52445 0.366886 6.83614
-0.511235 2.62392 8.20023
1.54527 2.67332 8.22985
1.59034 0.228737 6.76363
0.84276 -2.31017 8.82059
1.62865 0.198529 6.85829
-0.268763 3.54991 7.57446
0.728875 2.66912 8.01609
1.18653 0.0836355 7.0086
1.45451 -2.14831 8.51494
-0.719282 2.74937 8.08702
1.59434 0.032881 6.85276
1.93134 -0.0162212 6.9276
1.99198 -0.0513909 7.0258
1.32541 -0.0687482 7.0214
-1.40578 -2.0094 8.45609
1.26211 -1.99662 8.47334
-0.729248 2.81463 7.98698
1.0891 -0.230106 7.1601
1.50339 -1.91256 8.56193
2.26068 -0.245279 7.12392
-0.269479 3.49581 7.64069
-0.39086 -0.297796 7.18644
1.33108 -1.78172 8.25287
1.37417 -1.76781 8.27429
2.2778 -0.370062 7.23428
-2.05963 -1.70645 8.27862
-0.0252135 -0.485793 7.39755
0.920902 -0.502309 7.34867
0.119089 -0.502076 7.40104
-1.82803 2.94579 8.03403
0.865377 -0.516338 7.32644
1.08669 -1.61435 8.21879
0.446976 -0.649389 7.46664
1.12861 -1.55446 8.09323
2.69438 3.41811 7.73347
-1.48889 -1.56029 8.22953
1.79712 -1.53717 8.09991
1.26623 3.09848 7.96581
1.05261 -1.48859 7.95689
0.0462934 -0.88565 7.55454
-0.134311 -0.872286 7.50776
0.177979 -0.950959 7.67015
-1.0223 -1.03295 7.87256
2.19976 3.37206 7.70896
-2.03236 -1.43301 8.16017
0.344027 -1.01917 7.62754
1.30194 3.25366 7.83093
3.55628 0.721963 9.57721
-3.09486 -3.21694 11.7434
1.32297 -1.2872 7.94769
-2.34336 0.61797 9.49496
0.120393 3.32661 7.74112
0.866535 -1.22274 7.84629
-3.16404 0.803227 9.53555
-3.06132 0.81295 9.58062
-1.01439 1.63694 8.76684
-0.730626 1.32519 8.94577
0.423602 3.26415 7.75811
-2.89208 1.51302 8.91175
0.799833 -1.13016 7.7453
-2.80429 0.851988 9.49738
1.14105 -2.79067 8.98852
1.19322 3.13339 7.8728
0.0460606 -0.472824 7.42984
0.194416 3.34338 7.63826
-0.0656864 3.34157 7.59748
2.45877 1.46904 9.19914
2.34125 3.16923 7.80738
-1.80018 3.35751 7.58731
-1.26722 -0.507646 7.40048
-1.20812 -0.868687 7.59909
-0.32677 -0.844819 7.69063
1.3499 -0.810058 7.55806
0.211329 3.58613 7.55706
1.16007 -0.0169938 7.05374
1.53921 -0.0189051 7.06564
1.32346 0.163071 6.83276
-1.36699 -2.07352 8.47223
0.195193 3.39406 7.66757
3.07607 -4.51837 12.4682
2.16755 3.54432 7.59285
2.57905 3.56591 7.61474
-1.04547 3.07172 7.88846
-1.57872 -0.721237 7.60468
-0.301726 3.66654 7.5293
0.431726 2.36295 8.32426
-2.15239 1.50099 8.81225
-1.41458 1.52481 8.73992
-0.121987 1.82879 8.78728
-3.28482 -0.753455 10.7804
1.70782 2.057 8.65474
-1.12312 -0.498117 7.28665
0.148192 -1.64896 8.0991
-0.738861 2.00125 8.77755
-0.0783686 -0.482462 7.38337
0.941183 -0.47006 7.21497
-1.39323 2.9214 8.01013
1.03985 1.93576 8.69621
0.652335 2.90955 8.04148
1.8459 3.81774 7.33466
-2.19541 2.09512 8.55472
3.26745 1.06316 9.75839
0.532544 2.87605 8.01107
-2.47952 1.85672 8.60403
-0.69008 -0.389585 7.20023
3.15671 1.88785 8.96191
1.28912 2.10885 8.51789
-0.105245 -3.12012 9.40347
0.708516 2.14506 8.48896
-2.54127 1.74567 8.67299
1.75689 1.68255 8.69503
1.79153 1.76303 9.08809
2.15754 3.7929 7.42818
-1.65076 -1.89364 8.54362
2.69774 2.28834 8.66864
1.30043 -2.99527 9.36129
-1.03393 1.62528 8.93483
-0.685258 -2.90973 9.2423
1.65703 1.61017 8.9477
