2.01223 2.04849 5.38423
1.95345 1.99949 5.35153
1.39123 -0.986506 3.57425
0.963102 -0.12025 3.88681
1.35452 -1.02447 3.54325
2.37784 1.78156 5.45439
2.13025 1.93523 5.42308
1.42033 -0.327123 3.97625
1.16886 -1.45393 3.26064
1.2558 -0.325259 3.93301
0.819338 -0.272286 3.90182
1.58294 -0.341696 4.00325
1.18071 -1.62232 3.16642
0.960042 -1.09421 3.46757
3.01037 5.57949 7.63541
2.01581 1.18262 5.07398
1.1005 -0.228355 3.91213
1.93411 0.911911 4.92191
0.962494 0.0160209 3.93962
1.04184 -0.425616 3.80703
1.68493 0.191983 4.33255
1.23384 -1.87404 3.13279
0.883716 0.29653 4.06655
1.97109 1.31502 5.14149
2.27502 1.64732 5.35893
0.865672 -0.443889 3.78482
1.65715 0.0872434 4.23302
1.54719 -0.507751 3.9144
1.59756 0.254474 4.30852
2.14212 1.53865 5.23608
1.26257 -0.510906 3.85821
0.992875 -0.598795 3.71296
0.942519 -0.0729796 3.91454
1.58782 -1.40764 3.49166
1.35519 -1.42168 3.34256
1.01845 0.20102 4.06502
1.95434 1.99885 5.3539
0.953128 -2.46753 2.64176
1.35611 -1.1675 3.46702
1.08725 0.15698 4.04265
0.757795 -2.84322 2.43063
1.43409 -0.804401 3.6965
1.45697 0.129862 4.20333
0.643746 -2.84772 2.43856
1.45463 0.11667 4.19583
1.10854 0.113708 4.03379
2.0556 1.30599 5.14613
1.3231 -1.21584 3.44268
1.25441 -1.21295 3.42657
1.71848 2.14591 5.29728
2.24176 1.31303 5.15286
1.90097 2.32653 5.37584
1.96835 1.30949 5.12864
1.60209 -0.622772 3.89101
1.34299 -0.59458 3.82234
2.07695 1.31829 5.14653
1.35756 -1.42164 3.34401
2.04683 1.32685 5.14519
1.34698 -0.482832 3.8834
1.16913 -1.45591 3.26292
1.38387 -0.469101 3.89502
1.66975 -0.48181 4.01164
1.39174 -0.458718 3.89804
0.833556 -0.420304 3.81489
0.828528 -1.50019 3.24181
0.88241 0.296526 4.07505
1.43132 -1.59678 3.27886
0.961126 0.0145538 3.94113
1.58334 -0.342805 4.00981
0.981616 0.00156892 3.94392
1.45821 -0.311026 3.96433
1.23959 -1.68152 3.1433
1.51574 0.439718 4.39073
0.91905 -1.72853 3.07831
1.23995 -1.86617 3.14392
2.10291 0.404039 4.64708
1.02047 -1.95408 3.03097
1.57965 -0.0617573 4.15099
0.916542 -1.11027 3.4709
0.889047 -0.0962651 3.89953
1.52901 -0.515731 3.90618
1.95891 2.00231 5.39425
1.21152 -1.49933 3.22436
1.60502 -0.625666 3.89495
0.654979 -2.80239 2.45963
0.648067 -2.81164 2.4643
1.32287 -1.21457 3.43702
1.15909 -1.45364 3.26013
1.29679 -0.304109 3.95453
3.01173 5.58621 7.64869
1.49685 -1.12083 3.56812
1.46434 -1.08563 3.56139
1.00047 -1.08041 3.47146
1.22563 -1.24567 3.39482
0.313113 -2.97087 2.51062
1.25218 -1.65975 3.1504
1.38905 -0.353014 3.95389
1.3841 -1.16785 3.48592
1.27799 -1.6401 3.16523
1.5597 0.00587541 4.17145
1.62927 -0.595729 3.91507
1.18537 -0.432799 3.87666
1.38295 -0.467322 3.88783
0.643133 -2.85433 2.43516
0.91715 -1.33975 3.32365
1.54217 -0.507323 3.89857
1.97501 1.31461 5.14869
1.47896 -1.49493 3.35067
0.729795 -1.33703 3.3628
1.22064 -1.37938 3.29937
1.72202 1.74729 5.18266
1.43442 -0.805368 3.70251
3.13013 5.60067 7.80233
0.827566 -0.656312 3.73312
1.56682 -0.819009 3.76566
0.892775 -1.52013 3.22161
2.01074 1.18093 5.05515
0.88019 0.295388 4.06728
0.955167 -1.21868 3.3997
1.01546 -1.22305 3.40056
2.0932 2.01666 5.40807
0.99914 -1.08056 3.46673
1.02785 -2.66303 2.54558
1.52912 -0.515402 3.90669
1.44818 -1.07519 3.55644
0.961716 -0.123671 3.9035
0.811995 -2.11033 2.8435
0.874896 -2.56727 2.58384
1.35571 -1.02646 3.54654
1.63407 -0.613781 3.90266
0.881065 -0.597639 3.74418
2.04925 1.32529 5.14365
1.86971 0.344761 4.47339
2.00658 2.01062 5.39889
1.19464 -1.47962 3.23629
1.21247 -1.50117 3.22869
1.40835 -1.53904 3.27701
0.823666 -2.10501 2.83332
0.049093 -3.04541 2.60804
1.31279 -0.588167 3.81747
1.17679 -1.62573 3.16254
1.2781 -1.64173 3.1641
1.23897 -1.67901 3.14526
0.872422 -1.71359 3.08802
1.66972 -0.487694 4.00518
1.25627 -1.75364 3.12685
1.53697 -0.473512 3.92695
0.92306 -1.7281 3.07415
1.05647 -0.294568 3.87024
1.34817 -0.476983 3.88208
1.44673 0.112392 4.19277
1.22062 -0.578072 3.79176
1.97216 1.30621 5.13253
1.01668 -1.22521 3.40932
1.38377 -1.55088 3.27802
0.806237 -2.04668 2.87441
0.828461 -0.655056 3.73439
1.1967 -1.48959 3.23051
1.2043 -1.48962 3.22905
0.804901 -2.84981 2.42592
2.27981 1.24226 5.16591
1.42601 -1.89153 3.1977
1.22025 -1.38037 3.2974
0.895664 -0.0719031 3.90236
0.960626 0.0120455 3.95573
0.954775 -1.22038 3.39969
1.05772 -0.816524 3.64347
1.10833 0.110735 4.02535
1.43342 -0.945963 3.62527
1.20757 -1.40058 3.28816
1.16926 -1.46112 3.26224
1.59787 -0.376438 4.00402
1.33937 -0.592095 3.83012
1.18039 0.0720781 4.03835
2.08454 2.02554 5.39297
1.99551 2.00423 5.37924
0.946098 -0.988699 3.51325
0.313089 -2.97375 2.51228
0.884311 -0.156252 3.8694
1.236 -1.02612 3.53635
1.25259 -1.65774 3.15435
1.23958 -1.6863 3.15778
0.074543 -3.01726 2.61046
1.34859 -0.477333 3.89207
1.42654 2.0963 5.23048
1.0121 -1.21706 3.39933
0.701726 -2.75546 2.4793
1.1514 -1.43116 3.28358
0.895138 -0.074228 3.89163
1.83154 0.48257 4.51842
1.02752 -2.6657 2.54804
0.954439 -1.21828 3.39239
0.829699 -1.50579 3.24093
1.0303 -2.67088 2.54455
0.157392 -2.60775 2.80383
1.53083 -0.470273 3.91854
1.22748 -1.52624 3.23234
0.803765 -0.832098 3.64146
1.19143 -1.53967 3.19926
1.40868 -1.1355 3.50264
2.17337 1.38049 5.17391
0.928325 -2.47455 2.62726
3.14538 5.62507 7.84367
1.32741 -1.2176 3.43862
1.01519 0.426509 4.17605
0.873465 -1.71146 3.08224
1.76763 2.82565 5.59928
1.35349 -1.19243 3.45329
1.05607 -0.817182 3.62491
1.27701 -1.64538 3.16783
1.01736 -1.08583 3.47064
1.46964 0.0639913 4.16444
0.955637 -1.22776 3.39848
1.8116 2.0896 5.29538
0.701694 -2.75503 2.47881
1.25534 -1.55668 3.2133
1.39397 -0.996145 3.57484
1.23733 -1.61225 3.16498
1.26162 -0.995661 3.56223
1.20079 -1.48627 3.226
0.261172 -2.45525 2.84767
0.864968 -1.90455 2.97101
1.18602 -1.47664 3.23395
0.896042 -0.0759666 3.89123
0.864455 -1.87038 2.98843
1.00243 -1.07902 3.47635
0.867849 -1.92154 2.96208
0.0732291 -3.0198 2.61437
0.318823 -2.97356 2.51447
1.6816 0.182265 4.29542
0.809316 -0.46605 3.80649
1.21794 -1.40104 3.30906
1.01053 -2.67674 2.54581
1.34718 -0.474359 3.87674
1.02541 -2.6687 2.54656
0.916762 -0.311469 3.83751
0.755893 -1.27455 3.39826
0.787975 -1.21596 3.40464
0.885322 -0.154743 3.87428
1.27621 -0.946036 3.58694
0.879984 -0.343962 3.82411
1.05188 -0.817641 3.6295
0.959079 -0.129791 3.9004
0.893528 -1.81293 3.03287
2.17449 1.38379 5.1887
0.888894 -1.52399 3.21851
2.05315 1.32417 5.14211
0.849479 -1.95418 2.95031
1.23766 -1.94501 3.13397
0.195424 -2.92909 2.57322
0.510249 -2.90437 2.46205
1.02175 -2.67025 2.54982
0.648587 -2.87344 2.41355
1.3993 0.0664775 4.16486
0.911899 -0.312616 3.82868
1.30297 -0.515217 3.89212
0.867984 -1.91535 2.94715
1.13638 -1.77982 3.10041
1.26148 -1.77651 3.12388
1.19657 -1.75233 3.13522
0.807092 -1.51048 3.24825
0.956278 -1.22493 3.38222
1.35177 -1.23203 3.4429
0.904485 -2.41345 2.67493
1.26805 -0.799543 3.68606
1.30347 -0.413195 3.91957
1.17282 -1.4349 3.28926
0.965358 -1.10455 3.4681
1.26174 -0.999549 3.55142
1.79488 2.80623 5.62557
1.05715 -2.90493 2.44067
0.906519 0.231783 4.04987
1.27686 -0.524169 3.84654
1.37386 -1.17018 3.49894
1.23746 -1.01766 3.55138
1.21135 -1.39263 3.29191
0.966848 -1.09522 3.46232
1.45891 -1.9946 3.18032
0.814328 -2.86776 2.4433
0.163184 -2.60269 2.79747
2.04151 1.34569 5.13178
0.839925 -2.56687 2.56808
0.231543 -2.05383 3.1762
1.01555 -2.67481 2.54886
1.15947 -1.55643 3.21623
0.803825 -1.50943 3.23504
0.936636 -2.63504 2.56443
1.13762 -1.30249 3.35652
0.979636 -0.53827 3.75163
1.14189 -1.42466 3.29033
1.25561 -0.0596622 4.06924
0.265139 -2.45181 2.8534
