1.89836 -0.181844 7.29172
1.26613 -0.170439 7.30648
2.17434 -0.158486 7.29287
2.25571 -0.158525 7.28543
1.21743 -0.146704 7.26799
2.04665 -0.139382 7.25326
1.21104 -0.129707 7.27911
2.14591 -0.132197 7.19579
1.32907 -0.119064 7.2828
2.09043 -0.121063 7.20164
1.76598 -0.112453 7.22638
2.16471 -0.112542 7.20113
1.39272 -3.40294 9.76231
1.59736 -0.794497 7.74529
1.52117 -0.0955965 7.2446
2.00611 -0.0958883 7.22529
2.06369 -0.0988566 7.22601
1.57757 3.67408 7.73214
1.35849 -3.34239 9.66627
1.85596 -0.0800671 7.1898
2.04404 -0.0728086 7.24383
1.35708 -0.0623599 7.21119
2.06158 -0.0619422 7.18626
2.16716 -0.0627049 7.23724
1.90994 -0.057891 7.20913
0.205406 -0.798973 7.761
2.12013 3.63882 7.77833
1.21188 -0.0297508 7.23388
1.55916 -0.809011 7.72967
1.64564 -0.0040388 7.13338
1.94652 0.00467453 7.12539
1.55074 0.00945252 7.15201
2.0443 0.0130622 7.18275
-1.98163 -1.37188 8.19967
2.04063 -1.39123 8.22135
2.01481 0.0177651 7.13839
0.29056 -0.829132 7.89382
1.90616 0.0347855 7.09836
1.80562 0.0609593 7.11858
1.21936 0.0713033 7.12681
1.55113 0.0690387 7.07442
0.18095 3.54997 7.77563
1.6043 0.0678047 7.13327
1.42903 0.0746399 7.20224
1.74933 -1.41973 8.22225
1.1607 3.56362 7.85287
1.62647 0.0857065 7.08418
1.82782 0.0932469 7.14256
1.21907 0.112557 7.27645
1.80555 0.124086 7.05405
1.78736 -1.45161 8.26464
1.41465 0.130909 7.12855
0.440754 -1.46052 8.33091
1.77602 0.142218 7.0641
1.36611 3.53019 7.89835
-2.04915 -1.47173 8.32179
1.60167 0.156279 7.08488
1.71949 0.160366 7.0363
1.65744 0.180122 7.04412
1.68114 0.182688 7.03921
-0.196204 -1.47642 8.31762
1.90737 0.209004 7.16435
1.67086 0.212896 7.06738
1.74009 0.350333 7.05133
1.67294 0.233318 7.0725
1.66534 0.232977 6.97555
1.80747 0.2443 7.02975
3.02291 3.45647 7.87932
1.64385 0.250661 6.98528
1.87571 0.252749 7.04397
1.58006 0.407012 7.09953
1.59773 0.263345 7.10307
1.6463 3.42454 7.89535
1.64688 0.295421 7.06749
1.69567 0.293013 7.07039
1.55468 0.330161 7.09008
1.65636 3.41801 7.94458
1.48749 0.334829 7.04196
1.58448 0.33379 7.04302
1.06446 -1.53178 8.29792
1.67933 0.344782 7.10345
1.54253 0.34922 6.99697
1.59768 0.367066 7.06632
2.21662 3.38351 7.93629
1.57046 0.373167 7.01556
1.53499 0.387107 7.07299
1.10993 -1.55104 8.28721
1.47655 0.486015 7.14884
1.61585 0.517628 7.22106
1.55183 0.70167 7.35402
3.27641 0.721718 9.84561
1.56168 0.564415 7.20137
1.37336 3.33628 7.99098
1.4405 0.628065 7.38983
1.39 3.31713 8.03605
1.55515 0.66519 7.3302
1.58845 0.667167 7.32634
1.53952 0.674955 7.33489
3.66756 0.892695 9.71897
3.73431 0.900385 9.72186
0.820306 3.29725 8.03651
1.53916 0.726176 7.37775
4.80365 -4.13599 12.9046
-2.67738 0.939906 9.47198
3.28992 3.25895 8.00761
1.44277 3.28746 8.07337
1.41468 3.28737 8.06894
1.3825 0.783952 7.58499
1.40044 3.23677 8.04501
1.88408 -1.7723 8.49202
1.44812 3.24138 8.1097
3.02927 1.10497 9.55532
-0.477252 1.08088 9.20117
1.55031 -1.84687 8.63077
1.96755 0.0285305 7.14333
3.31053 1.1854 9.58108
-0.321791 1.18864 9.24056
0.802611 3.18909 8.13681
1.97916 -1.83236 8.52966
-1.43932 -2.98352 9.45968
0.446251 1.24123 9.23301
-0.25734 1.25 9.20984
-0.670674 1.30628 9.26243
0.83786 3.15353 8.12323
1.83798 -1.86484 8.50589
1.50581 -1.88404 8.60556
-0.635547 1.32822 9.20463
-0.227333 1.33964 9.21803
1.64064 -1.89255 8.59263
-1.8287 1.40013 9.25538
1.48664 -1.9308 8.6708
0.284889 1.39237 9.12493
2.53971 1.48193 9.31216
1.23372 -1.96354 8.62272
2.02622 1.55021 9.14763
3.0214 1.5638 9.15956
1.29919 -0.0634965 7.2126
2.07127 1.57602 9.15979
3.00114 1.63588 9.22866
1.06106 3.03403 8.12843
-3.04336 1.59898 8.95021
1.56538 -2.07533 8.72771
-0.89226 1.64826 9.04618
0.728119 1.663 8.94239
1.81928 -2.13215 8.75235
3.37962 1.72541 9.08275
1.66485 1.73367 9.04755
3.39655 1.749 9.10097
2.50318 1.77583 9.05779
2.23059 -2.18976 8.83651
0.917947 -2.19056 8.8141
2.36337 1.83146 9.03846
-1.77742 2.92137 8.12421
0.896907 -2.19711 8.80308
3.76578 1.84477 9.11536
-2.30729 1.82684 8.86031
1.66979 -2.23464 8.85792
0.832087 -2.24426 8.86583
1.61271 1.75073 8.98945
0.547766 2.90153 8.22292
3.51622 -3.89597 12.7441
1.65642 -2.24996 8.83982
0.389705 -2.26922 8.92547
-0.240256 -2.26519 8.85692
2.93658 1.95493 9.09082
0.832243 1.93789 8.86571
3.34248 1.9774 8.89618
0.969707 1.97417 8.81427
3.02764 2.00048 8.95755
3.333 2.01546 8.925
3.01681 2.0387 8.98588
-0.699785 2.8481 8.20877
0.988098 2.04795 8.8094
0.0542813 2.05018 8.76294
1.09016 2.04442 8.73478
-0.72307 2.84939 8.26542
-2.31293 2.05133 8.68901
1.32449 2.07039 8.77353
0.664338 2.06142 8.64079
1.08498 2.08163 8.70079
2.26511 2.12046 8.81045
-2.39033 2.11218 8.71567
2.29031 -2.46268 9.07513
1.23193 2.14882 8.6842
2.25463 -2.49326 9.05976
0.112587 2.20549 8.67161
3.27373 2.23992 8.8206
3.66762 -3.91094 12.9784
1.3797 2.22463 8.68284
3.26076 2.26606 8.83967
2.03756 2.79797 8.36381
0.0618867 2.25465 8.56141
0.0822993 2.26962 8.56678
2.03184 2.76144 8.3401
-0.257023 -2.54793 9.11952
0.108153 -2.55912 9.14042
0.433832 2.39576 8.57901
-1.16949 -2.6308 9.18419
0.450924 2.41175 8.51696
0.402923 2.44472 8.53655
2.0384 -2.76306 9.25118
2.27244 2.45582 8.567
1.35294 2.4643 8.50988
-0.896454 2.508 8.39018
2.43658 2.53993 8.49064
-1.04803 2.58518 8.45729
-1.15227 -2.73619 9.31024
0.575023 2.25632 8.62515
-1.59979 2.60895 8.31429
-0.47049 2.62664 8.30512
-2.21215 1.86438 8.84306
2.94603 0.898982 9.56847
-0.379316 -0.92438 7.93875
0.262318 -2.52484 9.08405
-1.44241 -0.677931 7.69749
-0.921467 -0.671708 7.694
3.33223 2.68061 8.4496
1.54393 3.2845 8.02519
-2.41356 2.58682 8.34178
0.789403 3.31183 8.10172
-1.60866 2.53592 8.26059
0.498836 -0.934438 7.89367
1.34275 2.56258 8.38356
-0.164305 -0.661109 7.65673
-0.0329109 3.27539 7.95525
1.38967 2.55243 8.37547
0.643448 -0.946855 7.90233
-1.02052 2.54266 8.38419
1.74001 2.55553 8.45302
0.021032 3.3218 7.94165
0.292077 -0.961002 7.93734
2.07209 -1.72082 8.42698
-1.96055 -1.72121 8.43457
0.324953 -0.608515 7.63387
0.651016 -0.966824 7.87412
1.1007 -0.606353 7.61811
2.14063 -0.600192 7.59538
0.508387 2.46605 8.51601
-0.111468 -0.579994 7.59529
2.17873 -0.585447 7.60844
-0.439319 4.10439 7.42295
1.26277 -1.65565 8.35474
-0.871141 3.2387 7.9777
0.909778 -2.61572 9.14266
0.305662 0.820875 9.13056
2.73163 2.43146 8.66048
1.71624 2.38402 8.52664
-0.111752 -0.538263 7.62733
1.18216 4.10994 7.51731
3.66836 1.0033 9.63372
2.26882 2.4023 8.66966
-3.48041 -3.24515 11.4761
0.82057 2.35539 8.51578
-0.719217 -0.519097 7.58852
2.07218 -0.520059 7.53684
0.105634 -0.504526 7.54336
0.0456631 4.06864 7.49634
-0.443376 2.33087 8.51549
2.22402 -0.505456 7.52045
-0.320361 -0.874709 7.83032
1.18946 4.12903 7.62611
-1.05071 -2.57959 9.1515
0.922034 4.08676 7.58024
-1.52025 2.30188 8.56412
-1.90761 -1.07573 7.99962
-0.733132 -0.463831 7.55434
1.60836 2.73597 8.31612
2.35838 2.32381 8.74567
0.967717 -0.45593 7.53684
0.0399075 3.22737 7.99641
-1.52512 2.26525 8.5358
0.466912 2.2864 8.63983
0.86227 2.77699 8.36149
1.1543 2.26137 8.62181
-0.556684 -0.400276 7.50529
0.101279 2.23417 8.54848
1.99716 2.78695 8.35256
-0.438301 -0.403157 7.53334
1.84479 3.23277 8.05782
-0.966229 2.23906 8.59851
-2.11789 2.23534 8.66216
1.16323 -0.389204 7.45745
1.69876 2.22821 8.69173
0.130544 -1.12195 8.00688
-0.834011 -0.379559 7.45044
1.20959 -1.75928 8.46084
0.517288 2.20253 8.65398
1.54383 2.7805 8.22563
3.4115 2.22204 8.78512
0.347984 2.18366 8.61937
-0.183044 -2.48278 9.07741
1.55825 2.19923 8.74046
0.224788 -2.79864 9.26568
-0.748649 -1.13523 8.00428
0.890031 3.32028 8.00178
-2.2443 2.13291 8.53662
0.545281 -2.43816 8.96078
-0.0749872 -0.362812 7.48745
0.847097 -0.762066 7.69308
1.15707 2.79564 8.21518
-0.920731 -0.358203 7.45523
-0.0870625 -0.76839 7.72817
-0.465216 3.96613 7.58144
-0.149573 -0.852928 7.80122
-0.416944 -0.339966 7.45246
-2.97232 0.824465 9.55399
-0.509778 1.11249 9.41158
1.98742 -0.308086 7.31213
-0.276491 3.9452 7.61619
0.524345 2.8327 8.29547
0.460942 2.09686 8.71838
1.4798 -1.78628 8.51127
-1.33594 -3.04363 9.41328
0.691637 2.09355 8.73902
1.09621 -0.304008 7.41104
1.11163 2.81946 8.22152
1.24581 -0.30038 7.33946
-1.06676 -0.299468 7.46155
0.51217 -2.37343 8.93308
-1.24947 -1.18423 8.05832
1.28309 2.82187 8.24464
2.83034 2.85712 8.30342
0.533357 2.04795 8.76275
0.825544 -2.83661 9.25222
1.98059 2.0587 8.84074
-1.8994 -3.57218 9.90425
3.47175 1.16796 9.6368
0.252462 -0.264371 7.55133
-1.35688 2.85261 8.21956
1.04841 -0.248779 7.36824
0.746527 -0.780154 7.7543
1.95964 -0.244546 7.36791
0.491926 1.86925 8.93126
0.803961 -2.31904 8.88702
-2.3032 1.97804 8.7261
1.56573 3.83441 7.63258
1.38142 -1.63824 8.38703
2.12809 -1.24607 8.0846
0.236516 1.16004 9.29556
0.435241 1.9159 8.80151
-1.87674 1.17725 9.33765
-1.15012 1.17145 9.29988
2.29827 1.90637 8.94204
-1.49751 2.86395 8.11514
-2.49813 1.75088 8.89299
-2.98271 -0.234552 10.2372
1.30383 1.86398 8.83727
0.457711 1.86576 8.83372
-0.095805 1.8637 8.8199
2.46433 -2.24202 8.84282
-0.322072 -1.62094 8.35616
1.90052 1.85353 8.9936
1.45828 1.85525 8.9797
0.726518 1.84067 8.93198
0.429415 -0.789906 7.7866
1.28639 -3.08557 9.46619
-0.830523 3.64349 7.6737
0.058306 -1.32064 8.15681
1.68564 -0.0711461 7.20172
0.729712 -2.84588 9.2441
0.0573349 -3.11105 9.54343
-2.33608 1.77839 8.93213
-2.04846 3.59143 7.63768
1.74958 -0.044412 7.15661
-1.88639 -2.12791 8.8202
3.45464 1.78523 9.1163
3.38707 1.78718 9.13124
1.62223 2.94189 8.09906
-1.14079 -0.800401 7.75208
0.832274 -2.8891 9.34054
-0.970574 1.7161 8.91078
2.3056 3.00791 8.18841
0.65656 2.40718 8.54337
-0.68529 2.96657 8.03745
2.6266 1.72949 9.09321
1.95162 1.72073 9.03868
0.851518 4.08144 7.56984
1.57485 3.34217 7.90485
1.86952 -2.11914 8.75071
1.44623 3.60622 7.83743
1.84588 -2.08383 8.68545
1.35834 -1.38676 8.18909
-0.995093 1.67331 8.95116
-1.68569 -3.25809 9.58233
0.724923 -2.89764 9.33115
-0.825391 3.55105 7.78864
0.98577 1.66518 8.9758
0.867916 -2.60408 9.02998
0.923591 3.17151 8.135
0.104794 3.14641 8.07313
1.28307 -2.95816 9.36404
1.86119 -1.40504 8.21393
0.371898 1.63464 8.95869
0.547208 -1.40474 8.2182
0.0207638 -1.4135 8.2501
-0.432055 3.54285 7.76438
2.51799 3.5633 7.82507
2.14916 1.64103 9.1395
0.710833 1.61689 8.99325
-0.800393 1.62919 9.05565
1.23257 3.5547 7.85325
1.28611 -3.131 9.5434
0.571104 1.60792 9.04332
1.08932 3.03633 8.12683
1.17662 -3.10344 9.45227
-1.32215 1.41915 9.17227
1.16687 -1.43385 8.21819
2.35395 3.05163 8.16317
1.1483 -1.43887 8.2259
-0.12989 -1.44444 8.27904
-0.573774 -1.4427 8.27791
0.0349221 1.58411 9.03308
1.37874 -3.26029 9.66442
1.41717 3.12377 8.09065
0.564328 1.58491 9.11621
-1.311 1.56307 9.02263
2.65651 3.04154 8.0894
-0.23892 3.51476 7.84104
-0.925995 -3.2277 9.61052
1.5931 0.282891 7.01027
0.531352 1.54068 9.0621
1.88536 3.48835 7.8385
1.40347 -0.85275 7.85591
0.436691 1.52315 9.05001
1.39622 0.196967 7.11664
2.53755 1.5384 9.18442
1.30036 3.25864 8.0493
-2.79233 1.48769 9.09654
2.66437 3.46243 7.86148
1.28481 3.11481 8.1919
0.183481 3.47471 7.89343
-0.34104 -1.61098 8.35884
1.848 -1.96197 8.59806
1.58521 0.242344 7.07891
1.63128 3.42203 8.00314
-0.502413 1.43136 9.06271
-0.547716 1.44616 9.14241
1.04944 -1.49188 8.26176
2.79073 1.45389 9.26301
2.43061 1.45947 9.30021
0.339367 -3.14267 9.53666
0.308664 1.44732 9.2151
-2.29139 1.42695 9.08237
0.575919 1.41436 9.11421
1.62009 -1.94027 8.63878
1.52042 0.264225 7.04264
-1.27631 1.39637 9.07043
1.48142 0.27083 7.05146
-3.61015 0.37715 9.81756
1.98954 3.4453 7.9714
2.169 3.40376 7.89247
0.653285 3.11191 8.13192
-2.03862 2.21885 8.53046
0.00429537 1.56031 9.00589
2.1302 3.50054 7.85006
0.455992 1.59061 9.0263
-0.755637 -2.99494 9.51568
0.194529 -1.64962 8.40877
-2.46988 2.13796 8.61075
-2.53105 1.61324 9.04866
-0.292562 0.121027 7.82512
-1.6387 -0.987314 7.93152
-0.442435 -2.29744 8.87961
-3.39951 0.662612 9.62544
1.13646 3.68984 7.86742
0.162242 3.752 7.73373
0.226336 3.69061 7.81297
3.27885 1.87189 8.97327
-0.505236 -0.398889 7.51292
0.739334 -2.26115 8.84818
-0.793193 1.73877 8.9745
0.678279 -2.0852 8.70676
0.741026 2.65386 8.39087
-0.966194 3.36322 7.89658
0.629541 -0.794159 7.81504
3.24998 2.21652 8.73331
1.27526 0.108492 7.20796
1.58606 -0.790609 7.66429
0.198939 -0.801035 7.76704
1.6898 3.38292 7.95728
2.30402 2.98817 8.0454
2.2061 3.36467 7.88945
0.116664 2.20368 8.66936
-1.26556 -0.775078 7.72923
2.03083 0.0855977 7.10822
3.41718 2.22287 8.79317
1.63331 0.0873297 7.12393
0.532984 -0.784236 7.81704
-0.891698 4.19698 7.44223
0.655185 -0.843514 7.86816
-0.111642 -0.844346 7.86829
1.80831 0.125625 7.07846
3.59546 2.20936 8.84909
-0.960442 -3.83735 10.0237
0.124667 -0.850048 7.81109
1.75872 3.00476 8.13243
-0.972636 2.25509 8.64855
3.41098 2.20296 8.87461
1.56207 0.0662377 7.11343
1.59739 0.156074 7.04874
-1.69159 -0.880067 7.88902
1.24563 2.16832 8.76452
1.66189 0.155974 7.03359
1.42852 0.0699004 7.17843
0.176549 -0.75232 7.71313
0.848685 -3.51677 9.73882
-0.0676081 -0.881117 7.83557
1.65774 3.40354 7.91138
1.7783 0.150114 7.03948
-0.143045 -0.891975 7.8194
-1.97111 -3.46387 9.74272
-2.43737 2.08886 8.55637
-0.849562 4.10398 7.34238
1.63245 0.0490038 7.16339
2.15796 3.37422 7.8299
1.58849 0.0449736 7.10152
-0.54194 -3.34569 9.63275
1.35939 0.185424 7.12781
-1.62711 -0.898607 7.78652
1.68613 0.18474 7.05514
1.89411 0.039795 7.14484
-0.282912 2.25554 8.54905
-1.81709 -3.26534 9.56451
0.067384 2.24848 8.53141
2.26854 2.12325 8.82232
1.83122 2.12213 8.80791
2.01639 0.0182213 7.12596
0.817015 2.25572 8.54534
0.0919697 -0.712848 7.73629
1.09257 2.07673 8.69888
-0.0696892 -0.956012 7.97488
1.78353 0.0207513 7.13467
0.535756 -0.710638 7.70492
-0.881966 -0.947253 7.90147
1.54796 0.00852636 7.13817
-2.28005 2.08067 8.72009
1.65024 3.43267 7.9269
2.24865 2.29575 8.6967
-2.27929 2.16931 8.58178
1.65268 0.253575 7.03494
1.94434 0.00204115 7.11062
0.312775 -3.19025 9.63188
0.492194 4.13217 7.50827
-1.54656 -0.699949 7.70051
1.76132 -0.00276521 7.12763
-0.892169 -0.411671 7.60863
0.803763 -0.528128 7.53362
1.59653 0.261985 7.04555
1.84099 0.261119 7.05372
1.77177 0.272216 7.04736
-1.4923 -3.09976 9.48438
-0.682883 2.04324 8.73893
0.494468 -0.688043 7.71334
1.8815 -3.11526 9.51096
-2.2463 2.0283 8.68365
1.65741 -0.00632951 7.18281
-1.3928 -3.09492 9.51734
1.37581 3.32244 7.97585
1.65153 0.299758 7.07605
-1.46861 4.03048 7.36159
1.93819 -0.0310917 7.16434
1.1608 -3.06813 9.45851
0.323657 -1.0379 7.95006
-0.925631 -0.678593 7.72537
-1.47005 -1.032 7.92477
1.25961 4.14993 7.59524
-0.226045 -0.679369 7.71245
1.18384 4.10429 7.5118
-0.109001 -0.674797 7.65145
0.21618 -1.06726 8.00785
-0.456754 -0.665191 7.67614
1.55412 0.326616 7.03161
1.59241 0.32911 7.02687
1.68883 0.328737 7.02555
1.67953 0.343529 7.10974
2.98286 2.00744 8.86624
1.32671 -0.0487527 7.16231
0.936228 1.99307 8.7911
1.54734 0.347217 7.04446
3.32703 2.00428 8.91105
0.067027 2.29373 8.47994
2.85298 2.01684 8.95422
0.738509 2.32453 8.58616
0.893121 2.32784 8.60956
-1.43943 -2.99476 9.47497
0.204492 -1.09628 7.97997
2.15503 -0.0617103 7.19782
1.18171 4.10162 7.56458
1.91117 -0.0587959 7.21039
3.02182 2.00044 8.94741
1.47699 3.33111 8.0515
2.0647 -0.0670156 7.19026
0.96929 1.95299 8.75658
1.54349 0.388176 7.07102
0.411416 -0.638542 7.74756
0.655011 -0.624446 7.60381
2.03572 -0.0696609 7.26669
2.66578 3.46746 7.86887
3.34885 1.96844 8.9705
0.460207 -0.625786 7.68498
0.675481 2.36956 8.52208
1.39729 3.31401 8.03848
-0.224234 3.11565 8.1195
1.45718 4.0184 7.48255
0.698421 -0.607102 7.62615
1.14996 -2.88716 9.37047
1.58675 0.442726 7.04884
2.92834 1.93839 8.99973
-1.25363 -1.18446 8.07406
3.51703 -3.90327 12.7494
2.2518 -0.160822 7.25451
1.38617 4.04066 7.54453
-0.393515 2.33776 8.41418
4.77122 -3.94683 12.953
2.00402 -0.0934998 7.19103
1.40274 1.90025 8.93103
1.47358 0.480351 7.10791
3.3152 1.90626 9.01166
2.12855 -0.104579 7.24563
-0.863999 -0.589628 7.6415
2.26067 2.37433 8.51714
2.06928 -0.101519 7.24531
0.546566 2.88762 8.18037
1.29304 -0.0964115 7.1925
1.73524 2.41644 8.63619
0.676974 -2.76371 9.21141
-3.88497 -1.7051 11.2396
1.29848 -0.0616876 7.22903
1.33161 3.53246 7.90868
1.44695 1.85548 8.90599
-1.16114 -0.571524 7.66383
1.29243 -0.0119404 7.19473
-0.238353 3.50193 7.81383
2.07929 -2.7333 9.17489
1.75578 -0.110368 7.18545
1.72397 -1.26356 8.07083
2.09362 -0.117847 7.22305
-1.13979 -2.71989 9.24413
-0.680098 1.81162 8.85241
1.7829 -1.29822 8.14048
1.15926 3.5486 7.83567
0.841781 -0.55476 7.5997
1.47575 -2.43294 9.00745
2.14108 -0.130061 7.28526
1.60103 0.607223 7.29676
3.5352 0.801445 9.69491
1.84626 1.79281 8.94954
2.27331 2.28236 8.6105
-1.26082 -0.543552 7.56438
0.889201 -0.538761 7.55389
1.46939 0.662323 7.48974
1.46603 0.652326 7.32186
3.20295 0.852592 9.69354
2.48332 1.76559 8.99389
0.164472 -1.35013 8.13969
0.311161 0.824353 9.13794
2.0907 -0.142514 7.21661
1.58809 0.666071 7.32379
2.05082 -0.140409 7.28553
-0.426048 3.92008 7.5197
1.57284 1.74344 8.99321
1.31488 3.26756 8.00755
-0.71034 2.82895 8.20372
1.30317 3.95759 7.60591
2.35504 3.92303 7.56147
1.50959 0.67211 7.34021
0.042158 -1.38152 8.19701
0.927732 -0.533862 7.61743
3.17629 0.884609 9.61171
-2.5335 1.7158 8.94589
1.13157 -0.138327 7.30257
1.9484 1.73405 9.08319
-0.0146284 -1.4089 8.27876
1.02573 1.70909 8.94369
0.179412 3.5582 7.79171
-0.760709 1.69153 8.94083
1.74798 -1.41819 8.24341
2.83306 2.84323 8.2731
0.212923 -1.42214 8.29501
3.2991 3.26423 8.02141
-0.12608 -2.48023 9.01105
0.0831506 -2.49122 9.04152
1.43557 3.25804 8.00283
-2.83505 0.904241 9.38986
-3.05095 -0.22346 10.4076
3.38866 1.68856 9.11243
1.25606 2.81697 8.19858
-0.366654 -0.508239 7.55797
1.10824 2.81155 8.18965
0.722871 1.66935 8.9691
2.17426 -0.161797 7.26322
1.14716 -1.44318 8.22351
3.04984 1.67068 9.14353
-0.344519 -1.45811 8.28975
0.89938 -0.507966 7.5529
3.67941 1.67485 9.25027
2.2195 -0.510587 7.52509
1.7544 3.91056 7.66407
2.28081 -2.44748 9.0198
2.2017 -0.173178 7.25575
0.868908 -0.501885 7.56563
1.44688 3.59484 7.82262
-0.195773 -1.47576 8.28546
-0.583245 -1.47927 8.31054
0.0655056 -1.49261 8.31348
1.87911 3.90096 7.65114
-2.54824 0.991212 9.22949
0.714429 1.61364 9.03328
-1.87382 -3.40353 9.65371
-0.744593 1.73138 9.06076
0.707217 2.81266 8.22144
1.37854 0.773177 7.50438
-0.152282 -1.50556 8.38162
-3.03523 1.58834 8.9121
3.04598 1.63338 9.20763
-2.85121 0.975212 9.44585
1.13926 -0.169418 7.35279
2.19816 -2.38056 8.98738
1.38661 1.9996 8.82633
3.76066 0.987593 9.59308
-1.14611 -2.71241 9.08851
-1.48252 -1.51757 8.37096
1.01663 -2.32385 8.87212
1.43665 0.789573 7.48711
1.17599 -1.50859 8.26961
2.34622 -0.180791 7.29989
1.53889 -0.764435 7.69503
1.88794 -0.181597 7.20073
-2.04903 1.55329 8.91193
-0.127929 -0.487522 7.5395
0.26683 3.62446 7.84236
1.40108 2.55168 8.39406
2.10748 3.592 7.75949
2.16334 3.7909 7.54429
-1.25492 1.53974 8.98115
1.06017 -1.52848 8.25155
3.05061 1.58008 9.26027
-0.704898 -2.26583 8.84799
1.15114 2.80176 8.2514
-0.0713008 -1.55428 8.34211
-1.6069 2.56012 8.31434
0.51457 -0.709309 7.70118
0.793275 -2.24455 8.8108
1.66576 -2.26818 8.89836
-0.207817 -2.23708 8.83927
-1.30145 3.53736 7.63393
0.122089 -0.475987 7.57831
1.46332 0.833463 7.51984
0.837866 3.16734 8.17356
2.11803 3.7996 7.60713
0.814277 2.5477 8.28639
1.83313 -1.59658 8.37225
2.13953 -0.194857 7.24949
-0.054818 -0.462131 7.48577
1.80947 -1.61291 8.37387
3.65848 -3.98932 12.817
4.12828 -0.295043 10.4367
1.63996 2.78256 8.26519
-0.0243054 -0.458233 7.57855
2.31201 -0.199015 7.28576
-0.328278 -1.63907 8.46094
1.20578 2.77298 8.2434
2.13218 3.65565 7.81544
0.773258 3.1438 8.08786
-2.42205 2.59688 8.37808
0.967667 -0.457935 7.52462
1.17514 -0.200482 7.26485
2.22717 -2.17572 8.80597
3.01974 1.09349 9.48985
-0.355785 -1.63968 8.31594
1.34968 -1.68458 8.44473
-1.58812 2.58593 8.26813
-1.19789 -0.446942 7.56516
-2.77965 1.48069 9.07522
1.40388 -2.09738 8.70314
1.83574 3.1938 7.97444
-0.28992 3.64933 7.76047
0.93282 -0.216441 7.40948
-2.34547 1.48436 9.17309
0.858625 2.75006 8.26578
-1.85023 1.15134 9.33039
1.4416 3.20528 8.03765
2.02992 2.74898 8.33019
-0.153144 1.14474 9.23448
3.33107 1.18873 9.6428
0.924005 3.17773 8.14368
-1.87709 1.17964 9.33951
1.14359 -0.23099 7.38136
1.88164 -1.76685 8.44332
1.66025 -1.78964 8.55673
1.49804 -1.9942 8.70178
-1.13884 1.16705 9.24194
1.15913 -0.385808 7.41762
1.26588 -2.00609 8.58537
2.41809 1.44392 9.21769
2.31384 -0.254668 7.32714
2.27315 -0.382326 7.46129
2.44758 -2.01697 8.68734
-0.116367 1.22971 9.31438
1.90695 -1.99915 8.66442
1.67122 2.71205 8.36787
1.44131 -2.08989 8.7155
0.450263 1.22651 9.18889
3.54355 1.41147 9.36263
-0.688934 -0.371404 7.4378
0.214737 1.40806 9.29837
1.04974 -0.251319 7.36455
-1.84551 1.40666 9.31047
-0.667934 -0.357233 7.44215
-1.76455 1.37575 9.21223
1.96921 -1.82113 8.46392
2.23589 -0.306888 7.37041
0.640304 3.16633 8.08165
2.40105 -0.308037 7.41103
1.48733 -1.92578 8.63138
-0.62693 3.1663 7.99654
0.773157 3.22224 8.20239
-0.341562 -0.327601 7.45758
-0.256049 1.2697 9.31658
-1.04062 -0.298775 7.47533
2.13402 -0.260579 7.32987
-0.652888 1.29456 9.15365
-0.503675 -0.338654 7.42139
1.63992 -1.8854 8.57187
-0.204342 1.29614 9.24971
2.34729 -0.282203 7.36675
-0.314937 1.26837 9.18986
1.96462 -1.86689 8.55051
-0.77075 1.6627 8.91524
-1.60806 -1.85934 8.61671
-2.07101 2.23748 8.6398
-0.0748841 -0.367291 7.47096
-2.2549 2.14288 8.57665
1.06418 3.05137 8.18803
0.574711 2.24578 8.58871
-1.88925 -3.56575 9.86921
0.574188 1.42361 9.15855
1.16097 2.27494 8.67041
2.88293 2.14836 8.89527
-1.66884 -0.723639 7.72986
1.61241 2.72648 8.2971
0.469073 2.28193 8.61211
0.335414 -3.13572 9.53925
-0.510781 -0.405567 7.53169
2.75384 3.32178 7.97186
-0.567067 2.29097 8.59948
2.56295 3.08747 8.17066
0.925741 2.28744 8.57715
3.45494 1.15974 9.58007
-0.136684 4.09557 7.50003
1.75126 -0.041067 7.16658
0.828837 -2.89554 9.35924
-2.3456 1.89551 8.83904
1.35465 4.03817 7.5457
1.29954 -0.0914264 7.34771
0.121288 -0.566679 7.60503
0.44263 -0.564172 7.56459
1.24938 3.28145 8.00459
3.27981 1.05838 9.52994
-2.01641 0.830985 9.5839
-3.49541 -3.25589 11.5161
0.374715 0.872313 9.21116
1.17109 -1.4348 8.23484
0.346399 -2.68759 9.12614
2.0855 1.58913 9.25252
-0.177743 -0.904945 7.90615
-0.78745 1.61128 8.96876
1.2691 -0.170407 7.28737
-2.67294 1.63005 9.13742
0.723925 -2.33097 8.85549
-1.89238 -2.07353 8.79732
-1.63116 -0.989871 7.91249
-0.412319 -0.339174 7.42798
3.18888 3.69621 7.66709
1.30574 -2.9942 9.38499
-0.901932 2.52238 8.42535
-0.441742 -2.30563 8.88802
-2.58743 1.59031 8.92112
-0.166718 2.27676 8.58797
1.59155 3.25318 8.06914
-1.37708 -2.0574 8.73385
0.983872 1.64882 8.9055
1.24692 -0.30113 7.3329
-0.782525 -0.962287 7.89537
1.09579 -0.305557 7.40563
0.0614224 -3.11345 9.54708
0.479335 3.2602 7.98445
-1.58023 -3.06647 9.47313
-1.43461 -0.675524 7.6659
2.39287 2.52178 8.5274
0.130653 -2.27052 8.86508
1.53356 2.76549 8.18014
-2.55999 1.11296 9.22366
3.38292 1.78517 9.0968
-0.668654 4.1243 7.45984
-0.0892351 -0.769913 7.75576
-0.0472275 -1.08208 8.04977
2.73083 3.81474 7.65383
-0.0662907 -0.661708 7.65968
1.23577 3.55025 7.84989
-2.14124 2.15711 8.63929
0.668341 2.09061 8.75448
2.67892 1.83616 9.02991
-3.0647 -0.17575 10.2625
-2.50723 1.53034 9.12556
-1.02829 3.07773 8.05293
1.25923 2.84363 8.1462
1.26199 -1.12453 8.02126
0.644941 -0.941255 7.87468
-0.521368 -0.707338 7.7077
1.92911 2.88152 8.19328
0.0885537 -1.6754 8.36698
-3.41844 0.662481 9.66714
0.725372 1.87507 8.86267
2.72094 2.61873 8.41825
-0.344678 2.24804 8.6214
1.41783 4.04143 7.54981
0.924664 4.08215 7.58513
2.7944 1.45527 9.29656
-1.70804 -3.29544 9.6869
-0.212195 -1.16724 8.03937
2.62125 1.2312 9.2218
-1.60915 -0.771578 7.80453
0.692453 2.09058 8.76005
-0.690506 -1.34416 8.21289
-3.47718 -3.22069 11.6135
4.14758 -0.182876 10.4144
0.616347 -3.56771 9.84863
3.18626 2.15383 8.75343
0.716058 -0.723286 7.71277
1.80628 0.192878 7.00946
2.06544 -5.165 10.9663
-1.11078 -4.97166 10.6462
1.80538 0.0396735 7.14953
1.19576 0.16634 7.31825
-3.18683 -0.803661 10.9746
1.6033 0.332917 7.03459
0.29832 -0.322273 7.51329
0.885987 -3.47581 9.79774
-2.31827 1.79152 8.7837
2.36625 1.83392 9.05633
0.497287 4.13544 7.52073
-1.77973 -3.41394 9.8007
1.83562 1.79386 8.93417
-2.58117 1.7912 8.90284
3.0181 1.81177 9.09336
2.91837 1.8136 9.10965
3.0507 1.77227 8.96748
0.455627 1.8633 8.89074
1.44321 1.85319 8.86621
-1.72125 -3.31465 9.73829
0.634996 1.77154 8.9605
-1.49795 4.07619 7.46155
-2.5019 1.73351 8.77218
2.4186 1.87884 8.97079
0.767602 1.75729 8.96378
-2.22173 1.87599 8.86878
-2.44678 1.86397 8.78065
1.58124 1.73678 8.98114
1.40822 1.9164 9.01154
0.315722 -3.16194 9.56699
-0.768079 1.71106 8.86511
2.09021 1.91604 9.01913
1.93343 1.71616 8.97813
1.03092 1.71032 8.95131
0.930861 4.10222 7.61757
1.4571 4.01907 7.47997
-1.57738 -3.05923 9.44618
-2.34826 1.89351 8.84635
-1.24383 3.97733 7.41069
-0.834085 1.70624 8.96592
1.34275 3.99718 7.45994
1.67215 1.70684 9.08051
-0.991788 1.67624 8.91584
1.53532 1.68904 9.06458
2.90657 1.93998 8.97479
3.04481 1.65922 9.08491
0.819969 1.94699 8.89702
2.05827 1.9597 8.94269
-0.737565 -2.96645 9.40842
-0.209047 3.97434 7.52178
-1.24134 3.94432 7.46876
-0.873316 1.61509 8.90021
0.718735 1.63388 9.0839
0.971403 1.96079 8.80195
3.03703 2.0077 9.0121
3.03001 1.63304 9.17544
1.26685 4.03119 7.68139
-0.456345 3.95367 7.5243
0.507425 1.6097 9.05048
3.56692 -3.98414 12.843
-2.38966 1.9451 8.62275
3.62516 1.61805 9.19624
1.21236 3.99424 7.65279
-0.431531 3.92271 7.51599
2.32728 3.90949 7.49901
-0.673564 -2.864 9.36726
2.85102 2.01645 8.94189
-2.29261 1.97478 8.68665
0.4755 1.55844 9.00419
0.932858 1.98097 8.72197
-0.0597359 -2.83135 9.34989
0.700394 -2.80993 9.26791
1.1427 -2.84245 9.39426
-1.28161 1.56075 9.10848
1.87564 3.89542 7.63161
-2.23304 2.01846 8.73699
1.03677 -2.79813 9.28184
-3.36526 -3.4592 11.6003
-1.14336 -2.71172 9.07272
-0.0593513 -2.75743 9.25268
-2.78969 1.49888 9.10915
2.17811 3.81024 7.59028
-1.13427 -2.72048 9.2323
0.58336 1.48137 9.06926
0.682709 1.48951 9.19698
-1.17894 -2.70271 9.23005
2.41803 1.43845 9.20031
2.71899 3.79586 7.63182
2.50795 1.4441 9.30798
0.404754 -2.62124 9.09826
0.572611 1.41725 9.13376
-0.671096 2.09152 8.7412
-1.16846 -2.61851 9.14519
-1.0216 -2.6262 9.17706
-3.56818 -3.31947 11.7098
0.228891 1.3935 9.19952
-1.84649 1.41005 9.32445
1.08772 2.07949 8.68962
-3.23084 1.37984 9.18046
0.462217 2.10452 8.7628
0.121039 -2.57407 9.13592
2.25344 2.10013 8.7274
-2.36186 2.08825 8.62563
-0.259563 1.35756 9.45375
2.67818 1.32131 9.31703
-2.16639 2.12962 8.63359
-0.24792 -2.47893 8.97954
-0.131625 -2.47989 9.02015
0.075589 -2.48868 9.04731
-0.239907 1.26763 9.26043
-0.331092 1.26298 9.24564
3.27598 1.27856 9.4552
-2.14281 2.17012 8.65883
-0.430928 3.66584 7.73721
-0.102551 -2.45997 9.05289
0.456423 1.23141 9.21776
-0.118145 1.22042 9.24329
1.47668 -2.42195 8.97812
0.511926 2.18725 8.61457
1.58369 3.62798 7.68283
1.07196 2.2058 8.67433
-0.331929 1.21857 9.31678
-0.276506 3.60409 7.66584
-0.329542 3.64465 7.74723
0.341902 2.19905 8.59444
-1.89223 1.1889 9.4001
-2.57523 1.17124 9.20112
-1.12857 1.15547 9.20379
-2.66773 1.16575 9.31331
3.28803 1.17451 9.49044
-0.149127 1.15343 9.30626
-0.81001 3.54122 7.5803
-1.17607 1.15076 9.3359
0.221441 3.65399 7.85764
0.832385 2.20354 8.55683
2.10679 3.59217 7.74595
-0.336995 2.24373 8.61573
3.83975 1.12482 9.46748
-0.782517 3.55731 7.6767
-1.31422 3.562 7.68524
-0.719694 -2.28997 8.95826
-0.154587 2.2533 8.66598
0.27327 3.62494 7.84429
-0.252077 3.56855 7.71851
1.65655 -2.25704 8.83738
1.39223 2.24784 8.63295
0.802825 -2.24726 8.86605
0.832 -2.24941 8.86965
-1.69921 3.56704 7.71607
-0.517719 2.25044 8.57357
-0.293962 2.26621 8.62955
-2.63112 1.0863 9.24032
2.74349 2.28881 8.73435
1.1215 0.947951 8.30906
0.896213 -2.1905 8.7923
0.766569 2.28612 8.61263
1.57386 -2.16707 8.7768
3.65166 1.029 9.54325
1.08665 3.58596 7.84311
-0.343331 3.55107 7.76778
1.83845 -2.13505 8.80544
1.42164 3.53784 7.77014
0.885813 2.29668 8.52019
1.52062 0.792957 7.43283
1.51696 0.766453 7.4148
1.49422 -2.06652 8.72843
2.73247 3.5657 7.85832
-1.88883 -2.07259 8.78772
1.26678 -2.02521 8.65175
1.16254 3.58254 7.91833
1.53789 0.738992 7.39904
1.58251 0.715572 7.37567
1.32558 -2.01717 8.66807
3.63049 0.913298 9.7477
0.629409 0.875375 9.32901
-0.243583 3.52235 7.8498
0.378161 0.863516 9.14994
2.08243 2.37141 8.73489
1.90432 -1.99516 8.64034
2.45962 -2.01137 8.69766
-1.38381 -1.97287 8.60089
3.70515 0.878681 9.6895
1.50781 0.669238 7.31181
1.27085 -1.95428 8.58385
-0.447154 2.34217 8.55847
3.21131 0.868845 9.78682
1.46413 0.65035 7.33135
-0.268275 3.48522 7.8212
-2.98913 0.824472 9.6181
1.48792 -1.92192 8.6184
3.65897 0.803727 9.78192
3.56767 0.809846 9.79267
1.51942 -1.89015 8.629
1.64683 -1.89707 8.63439
-1.96676 0.742166 9.54521
-0.402246 2.36295 8.48743
1.97046 -1.88125 8.62206
-1.61233 -1.86002 8.6204
0.437994 2.39653 8.55583
2.67363 3.47248 7.87385
2.31278 3.46123 7.88434
1.50789 0.480145 7.13382
0.657303 2.39086 8.48096
-1.29001 3.45332 7.85961
-2.28018 0.619654 9.61479
0.448488 2.41919 8.46361
1.37146 -1.7982 8.59158
1.64347 -1.7722 8.46267
1.87571 -1.76471 8.43931
2.25592 2.41613 8.45998
1.53745 0.355256 7.0549
1.64999 3.45034 7.94227
1.55483 0.323126 7.0232
1.69189 0.309537 7.01518
1.64352 0.299835 7.00432
-2.18021 2.45155 8.4104
1.77208 0.266864 7.05642
1.20538 -1.65506 8.31264
1.34638 -1.68356 8.43346
2.15642 3.37672 7.83288
1.61013 0.264279 7.06526
1.65425 0.255309 7.05094
2.82448 2.50595 8.49966
-0.0372162 3.35534 7.79488
2.39025 2.53313 8.54832
2.4447 2.53408 8.53928
1.54798 0.243123 7.04486
1.50185 0.240035 7.05046
1.766 0.23092 7.03183
-2.15162 2.50371 8.35166
3.80525 0.269791 10.1332
1.67774 0.182034 7.00411
1.34576 0.185385 7.08503
1.67902 3.36294 7.89649
1.13611 -1.53541 8.31202
1.70863 0.156659 6.98982
1.59971 0.159742 7.0706
-0.97229 3.36547 7.9014
-2.04992 -1.50739 8.32304
1.35253 2.57006 8.46669
-1.49166 -1.52758 8.40976
1.40896 2.56944 8.47546
1.81798 0.147659 7.05574
1.80219 0.124538 7.03885
-0.149739 -1.50254 8.3632
1.27034 0.104289 7.19102
1.19864 0.107782 7.18342
1.36031 0.091157 7.10118
1.32273 3.34488 7.94032
1.62738 0.0825872 7.08537
1.70986 3.2936 7.86108
1.29123 0.0790229 7.17654
1.55588 0.0686623 7.08186
-0.135652 -1.45215 8.29185
1.14271 -1.43026 8.16498
1.23016 0.0699468 7.16205
1.89737 0.0462404 7.13415
1.73159 -1.40825 8.14636
0.218317 -1.41224 8.23879
1.44371 3.35322 8.04078
-1.59895 2.60395 8.3266
0.245676 -1.4025 8.25516
1.77664 0.0228172 7.12239
0.0278865 3.31072 7.93404
1.94927 0.00768539 7.1105
0.0424793 -1.38336 8.23711
-0.491281 2.6139 8.34431
1.92162 -0.00129605 7.18209
0.161821 -1.35218 8.17583
-2.93548 -0.00673111 10.0382
0.42298 3.30995 7.99195
-0.904244 -1.34277 8.21656
0.0419292 -1.33073 8.16028
-0.906559 3.25054 7.88539
1.22321 -0.0294556 7.26907
-0.438615 2.63438 8.37571
-0.133849 -1.31018 8.16852
1.78127 -1.30124 8.13069
1.74874 -0.0460808 7.15163
1.33989 -0.0477833 7.24394
2.17835 -0.060835 7.28839
2.07285 -0.0621942 7.21447
1.30272 -0.0638257 7.24183
1.7768 -1.26315 8.04944
-0.492974 2.6659 8.37726
0.43089 -1.25902 8.14345
1.51541 2.67561 8.36885
1.33424 -1.2665 8.17904
1.72748 -1.25713 8.07135
-3.85743 -1.69116 11.155
1.51596 -0.0988406 7.23119
1.29769 -0.0936561 7.20638
2.13249 -0.106778 7.25326
1.33536 -0.1075 7.28442
4.14548 -0.184223 10.4083
2.16699 -0.126478 7.25413
0.884542 -1.19676 8.02092
-3.09005 -0.183806 10.3957
-0.859092 3.21808 7.93062
-0.895918 3.21374 7.91394
1.14097 -0.13399 7.35215
2.10275 -0.147114 7.23666
3.02673 2.71091 8.43812
-0.501416 2.68043 8.28905
1.40687 3.25479 8.0556
1.27041 -0.170843 7.32972
-0.946032 3.27736 8.12018
2.23643 -0.184065 7.2836
1.88478 -0.183579 7.22659
1.59246 3.24242 8.05372
2.31483 -0.194049 7.26379
1.18274 -0.196467 7.31366
-1.90663 -1.13007 8.05516
1.67498 2.72892 8.41246
1.56353 3.22506 8.03945
2.35712 3.20876 8.03966
2.01298 -0.244317 7.25907
2.32978 -0.256281 7.38862
-0.392352 -0.272941 7.44412
4.09405 -0.412398 10.5424
1.61798 2.7459 8.32856
2.02992 2.74898 8.33019
0.316684 -1.03877 7.97828
0.889894 3.18814 8.05953
-1.04386 -0.296811 7.45559
-0.634145 3.18591 8.05502
0.860747 2.75987 8.29536
0.339271 -1.00453 7.90148
1.19672 3.1668 8.07056
0.641199 3.16404 8.09602
-1.09946 -0.333594 7.50498
1.43739 -0.344618 7.38279
-0.887434 -0.956963 7.93949
1.89324 3.10754 7.97973
1.12698 2.78673 8.23984
0.920033 3.14771 8.08953
0.194779 -0.919542 7.84425
-0.690647 -0.371843 7.49119
-0.885144 -0.367913 7.35278
1.156 2.80415 8.25586
0.83746 3.17423 8.1913
-0.836256 -0.387762 7.45656
1.16487 -0.393722 7.4301
-0.139848 -0.887031 7.81153
0.704467 2.80397 8.2155
-0.749046 -0.422628 7.44753
-0.324164 -0.887551 7.90062
-0.0763651 -0.879776 7.83721
0.0529198 -0.881367 7.85511
3.72318 -1.25013 11.0926
1.11775 2.83877 8.27022
-3.40895 -0.635487 10.5434
-0.0122142 -0.465312 7.56325
1.27182 3.12882 8.21068
0.12974 -0.84511 7.77989
-0.764511 -0.468658 7.60942
0.124989 -0.479005 7.57471
0.920516 -0.485309 7.53708
-0.137767 -0.493806 7.61995
2.81329 2.8173 8.17542
2.54692 3.05923 8.0958
0.629378 3.06479 8.11654
-0.709693 2.82263 8.16099
1.25657 2.83707 8.11439
-1.27362 -0.7801 7.74036
0.802321 -0.52638 7.59524
0.915995 -0.532845 7.50034
0.850556 -0.553197 7.58379
0.217958 -0.770144 7.75889
-1.15621 -0.571345 7.6297
-1.3695 2.90393 8.10516
-0.849074 -0.589354 7.58549
0.704879 -0.605486 7.6287
0.464065 -0.616949 7.60165
-1.77589 2.91711 8.0731
0.417982 -0.639927 7.68944
0.0905072 -0.720877 7.78173
1.52255 -0.718857 7.76046
-1.57586 -0.661317 7.72628
1.94972 -0.663752 7.57613
-1.54754 -0.699698 7.70926
-0.114046 -0.677495 7.68812
-1.45797 -0.683629 7.76998
0.536174 -0.707647 7.74717
-1.58776 -0.691807 7.7152
1.27175 -2.90698 9.33289
-1.59293 -0.7656 7.74742
1.4087 2.87704 8.13937
2.02879 2.91954 8.26849
0.829524 -2.89141 9.34513
-0.107516 -3.25975 9.58458
1.38026 -1.27851 8.05788
1.60122 -0.636783 7.52578
0.714488 -0.728123 7.73346
0.756353 2.07012 8.66079
1.26062 -0.978896 7.88718
0.765772 3.22346 8.14671
-0.73684 -2.2207 8.82834
3.36382 2.33666 8.70474
-0.726096 4.11444 7.48539
1.93037 -0.521635 7.49979
2.2659 -0.526049 7.7635
3.42501 2.23801 8.82818
1.05966 3.0335 8.13942
-0.0732184 -2.45146 9.07265
-1.05344 2.58537 8.46654
-3.40154 -3.16183 11.3978
1.37221 3.25664 7.96073
-0.695748 2.75619 8.26125
1.5691 1.72084 8.92038
0.71066 1.65905 8.94468
0.224808 1.40402 9.24712
-1.76035 1.3534 9.16156
1.85481 0.202061 7.0233
1.66639 0.171753 6.99372
1.62858 0.0465168 7.20047
1.3343 -0.0523827 7.2291
1.98236 -0.0791809 7.18693
2.13219 -0.11503 7.26676
2.23954 -0.142073 7.33451
1.08893 -0.213514 7.31622
-0.392918 -0.287857 7.41066
0.850816 -3.54068 9.77631
-0.694681 -0.381072 7.50609
0.866659 -0.504758 7.53219
-1.64875 -0.904389 7.82033
-1.00013 -1.01316 7.94634
-0.316378 -1.70227 8.57713
4.84408 -4.09746 13.0625
-1.42203 4.0351 7.35887
0.352363 -2.26088 8.83094
-0.453603 3.91685 7.46705
-0.430164 3.93832 7.57188
1.28819 3.91542 7.55184
-0.439431 2.61726 8.34249
1.97824 -0.0371825 7.1202
1.13443 -2.79533 9.24086
2.12099 3.83977 7.70371
2.17591 -0.167786 7.31352
-0.41914 3.62977 7.669
-1.37144 -3.06778 9.46046
1.58214 3.65026 7.74854
2.09494 3.57322 7.72041
-0.789836 3.57448 7.72857
-1.70496 3.56181 7.72987
1.07375 3.51838 7.72712
-0.814399 3.48872 7.67124
1.19614 0.166169 7.34863
2.24633 3.34133 7.93573
2.69418 3.40802 7.86658
2.18648 3.41777 7.88606
-0.0570239 3.3724 7.85441
1.14913 -2.83844 9.2308
2.19209 3.35495 7.85064
-0.913745 3.23888 7.88095
1.40277 3.24693 8.03916
1.44437 3.18432 8.00916
-0.70649 -2.97751 9.53252
-1.14028 -2.72435 9.24114
0.700049 -2.43398 9.03954
2.28626 2.97395 8.07531
1.73105 2.95561 8.17186
-2.70984 1.04579 9.33259
-2.661 1.1689 9.28921
-3.55566 -3.29291 11.8193
0.856613 2.75324 8.30781
1.66136 2.69031 8.31422
1.52119 2.63049 8.25678
1.39993 2.54109 8.42245
-2.1435 2.47562 8.31761
-0.157428 -2.4963 9.11526
2.40258 1.28702 9.36826
0.436447 -0.574051 7.54372
-2.2539 1.7033 8.62561
0.390044 2.42711 8.4597
0.439414 2.4073 8.45931
2.31033 1.33199 9.29262
-0.715911 1.33367 9.1643
0.65627 2.37291 8.47185
-0.413777 2.35286 8.51051
-1.43086 2.34266 8.47511
2.70288 2.33743 8.71467
0.933254 2.29646 8.56043
-0.576415 2.31652 8.69405
0.80613 2.26746 8.64776
0.461001 -0.677752 7.70575
-0.954732 2.22189 8.54131
-2.00076 1.5273 9.1975
-0.330877 2.21284 8.54644
-0.221147 -2.23332 8.78669
1.07275 -1.56492 8.19997
0.825865 -2.25799 8.87634
-2.89254 1.47582 9.27047
2.24444 1.53338 9.16905
1.29356 2.1459 8.82543
3.06911 1.66528 9.20481
1.04895 -1.50399 8.27942
1.65848 1.69117 9.01989
1.14692 -1.49931 8.27261
-2.28959 2.07309 8.76502
-2.28634 1.99219 8.55439
-0.143592 -1.45951 8.34638
-2.2552 1.99615 8.70213
-2.34129 2.0023 8.83216
1.45928 -2.14304 8.78267
-2.76301 1.22742 9.2684
0.959913 1.96101 8.8126
1.8382 -2.1233 8.7719
2.05514 1.96031 8.9701
2.87278 1.90728 8.86973
1.25407 -2.02548 8.56458
1.47962 -2.0568 8.70012
-0.730604 1.90761 8.8946
-1.39185 -3.99405 10.1679
1.39277 1.89728 8.9138
3.38961 1.95223 9.23278
2.71845 2.25128 8.65526
-0.68869 1.81005 8.81779
-3.11152 0.856058 9.67812
1.26249 -1.97049 8.62235
1.48509 -1.95734 8.63276
2.98067 1.79848 9.04261
-1.98836 0.754947 9.57597
-2.36304 1.76294 8.91992
-2.56644 1.77358 9.0149
-0.317115 1.18842 9.12522
1.82078 -1.86694 8.52776
-1.60695 -1.84581 8.60618
-1.41044 -3.87464 10.0136
1.8479 1.64833 8.99233
1.64233 -1.77326 8.47598
2.35908 -2.4409 8.91367
-0.887178 1.6148 8.89428
1.64533 0.215845 7.02125
-0.502479 2.68612 8.29798
0.502331 1.59624 9.02374
1.61674 2.73291 8.33487
0.465046 1.5555 8.98396
1.33232 -1.67209 8.41196
-1.89694 1.55565 8.95384
0.598615 1.54567 9.12515
2.04125 2.91786 8.25457
2.01994 0.0368666 7.06431
1.61409 0.00220091 7.07333
1.28064 0.0068575 7.16568
-1.45255 -1.52173 8.29077
-2.06229 -1.51899 8.38263
2.09238 -0.0985109 7.27711
-0.175404 -1.49951 8.2986
2.31125 3.14876 7.99606
2.30441 -0.154147 7.35434
-0.657571 1.27865 9.11925
-0.0678465 -2.83292 9.36161
-0.341804 1.27245 9.33492
1.26906 -0.172174 7.35445
1.42276 3.29338 7.88605
3.25061 1.26167 9.41666
3.12482 1.24447 9.25874
-1.79289 3.37067 7.78218
-0.0134005 -1.38458 8.15098
-0.157757 1.15344 9.27789
1.35775 -0.797451 7.78662
-1.26821 3.5298 7.66544
-0.301956 3.56593 7.74293
0.0203864 -1.34831 8.16709
0.166131 -1.34935 8.182
1.5152 3.61732 7.6379
-2.73197 1.00428 9.47554
3.71183 1.01981 9.75605
1.03834 0.870748 8.4494
2.66302 3.74886 7.63913
3.76261 0.951628 9.69017
-3.90408 -1.70573 11.2825
1.54268 0.65869 7.33592
0.88236 -1.20813 8.08587
1.58535 -3.28053 9.68152
-2.96101 0.804174 9.55442
3.67213 0.798788 9.9126
-1.90603 0.759984 9.44053
1.57527 0.579493 7.28691
3.64115 0.652207 9.77538
1.19199 4.15326 7.60513
1.64106 0.414471 7.06225
1.73415 0.327958 7.10419
1.55872 0.324406 7.00951
0.415721 -0.654643 7.73448
1.48827 0.330599 7.0686
0.456142 -0.625842 7.62536
0.653511 -0.629394 7.64562
1.63481 0.283566 6.97546
0.365374 -0.614322 7.63329
1.83295 0.256229 7.04901
1.61099 0.254541 7.05885
0.700118 -0.617768 7.66428
1.75824 0.231033 7.02628
0.528468 -0.720145 7.81065
-0.482092 -1.01301 7.93851
-1.15511 -0.568455 7.60689
0.122433 -0.493332 7.58606
0.913019 -0.484887 7.53608
1.28967 0.0788735 7.21645
1.18597 0.04804 7.19716
-0.756413 -0.469766 7.53551
1.94153 -0.00668646 7.13952
-2.99899 -0.0222612 10.2098
1.30246 -3.75145 9.99133
1.4302 -0.350786 7.43655
1.32882 -0.124008 7.27755
1.18428 -0.123803 7.27508
2.22993 -0.185 7.30246
1.1778 -0.196375 7.32429
0.281251 -0.833965 7.82957
-0.135701 -0.892584 7.83792
-1.08679 -0.336226 7.44116
1.14715 -0.232732 7.41555
-0.321667 -0.830426 7.85144
2.31392 -0.254822 7.33742
2.11672 -0.259544 7.36321
-0.089903 -0.881603 7.86123
0.0492077 -0.870001 7.75953
-0.104196 -0.839601 7.76099
4.08376 -0.416864 10.5323
-1.86878 -3.51798 9.73097
2.0069 -0.245513 7.28331
0.0481612 4.03342 7.46495
2.31437 1.53597 9.15547
-1.67066 -3.27393 9.58176
-0.513671 -0.350431 7.45738
1.4577 4.02558 7.49453
-1.29116 -0.785868 7.79438
-0.206055 3.86709 7.57983
1.6007 0.143466 7.07512
0.322807 -3.14724 9.51473
1.74829 -0.0523755 7.22274
1.15998 3.11122 8.23952
1.49626 3.87108 7.70034
-0.86039 -0.602269 7.66322
1.50389 0.241488 7.0822
1.74764 2.99237 8.09952
2.16836 3.80632 7.59872
0.193123 -1.09815 7.98328
1.42474 0.330294 7.10411
4.15062 -0.92466 10.8775
1.60022 -0.639299 7.54577
-1.93731 -1.13754 8.12782
-1.10521 3.6286 7.58366
-1.53092 3.60235 7.61918
1.94665 -0.676387 7.61739
-2.31002 0.61438 9.66869
0.497653 2.84296 8.31373
-3.02992 0.783292 9.47745
1.30068 0.166618 7.27832
1.17545 4.01319 7.59457
1.25419 -2.91682 9.32723
1.63936 3.41201 7.88305
1.58349 0.216861 7.123
0.371575 0.878012 9.29352
1.491 2.62744 8.36961
2.72745 3.2688 7.8745
0.661951 -2.79297 9.27287
-1.02724 3.06982 8.04805
-1.06462 2.9912 8.093
0.784 -2.32377 8.79631
-2.76646 0.840668 9.67047
1.36746 -1.27861 8.02526
-0.334306 2.16721 8.63721
0.960865 -0.458668 7.56425
-0.284615 3.61583 7.68477
0.0483316 -0.459763 7.59083
-0.89852 -1.33609 8.15602
-1.49465 2.84423 8.08672
-2.20259 2.1281 8.8364
1.26714 2.86554 8.20446
-0.772679 -0.43982 7.55209
1.24477 2.80345 8.16275
3.00239 1.07702 9.45606
1.2071 2.76455 8.23298
-1.365 -2.05362 8.68132
-0.642441 1.89422 8.89697
1.57639 3.88944 7.79344
-2.19031 1.85131 8.78114
1.00483 3.53571 7.91191
0.817841 2.59233 8.39522
2.42223 2.52245 8.5065
0.810733 1.18683 9.3028
2.39476 3.87354 7.55305
2.48068 3.41272 7.88157
0.440589 1.28943 9.17099
-0.299177 -0.598885 7.66003
1.31429 -1.42159 8.19541
-0.991599 1.62749 8.88293
0.445161 1.24416 9.30619
-0.452223 2.34935 8.61653
-0.896862 1.56112 8.99365
2.63543 1.24791 9.34195
-1.99914 1.47204 9.01406
3.57142 1.49006 9.42881
0.381205 3.25382 7.95847
-0.478142 1.53644 9.09144
-2.28529 1.26379 9.02649
2.35393 3.21 8.03575
-2.36261 2.06343 8.58511
1.97539 -1.83449 8.53994
1.76652 1.76076 9.21916
-0.118586 1.83583 8.97255
-0.122337 1.23544 9.35529
0.456442 1.85752 8.80809
-1.16761 -4.90241 10.4917
-0.748105 -2.23972 8.87279
1.76379 -1.26607 8.02713
-0.172147 -2.28959 8.93626
1.92426 2.89636 8.24314
-2.46143 1.85689 8.82292
1.48289 2.35322 8.51484
1.99875 -1.87738 8.49676
3.68453 0.670329 9.78979
0.219409 -1.64793 8.38001
1.93558 -1.8606 8.51119
1.45226 2.56541 8.43024
2.14018 1.63537 9.10397
3.08202 2.67185 8.57063
2.93166 3.30401 7.87769
0.710617 2.10256 8.5157
-0.130705 -0.500063 7.52786
0.921841 4.0807 7.60467
-1.31091 2.97457 8.23679
1.561 3.77735 7.56772
-0.629819 -5.18368 10.5972
-1.26041 3.98736 7.45392
-0.985557 -3.88673 10.1426
-0.46977 3.96236 7.53951
1.28888 3.9277 7.56991
1.12226 3.93768 7.65688
0.852672 -3.57084 9.84103
-0.343041 3.83343 7.49761
1.85991 3.84655 7.55513
0.905289 -3.51493 9.89532
-1.92214 -3.35161 9.55144
2.67689 3.82385 7.58309
2.17029 3.81493 7.63981
1.37701 -3.34717 9.60167
-0.13079 3.78413 7.61022
-1.81813 -3.29779 9.60316
2.73028 3.74609 7.68495
2.85979 3.68178 7.73938
-0.297351 3.69093 7.75021
1.53686 3.66367 7.73493
-0.423794 3.63377 7.68132
1.58997 3.639 7.72902
-0.857022 3.657 7.81602
-1.38508 -3.05753 9.43563
0.217376 3.61042 7.77964
2.09179 3.54798 7.68267
-0.0958536 -3.06719 9.50747
-1.30261 3.50473 7.60035
-0.206529 3.54647 7.73022
-0.26397 3.57167 7.7923
-0.851593 3.55718 7.76143
-0.700179 -2.97018 9.49511
-1.37407 3.53683 7.70543
2.17719 3.55913 7.79741
1.28901 -2.94403 9.45877
1.15526 -2.86199 9.27332
-0.668516 -2.86258 9.3555
2.51404 3.53305 7.80412
1.05451 3.5842 7.98475
-0.0723855 -2.80198 9.28759
-0.264369 3.51537 7.85691
1.16282 -2.81392 9.33408
3.02911 3.43725 7.89604
0.201286 3.41338 7.88497
-1.79156 3.36707 7.77753
-0.0604871 3.36269 7.81579
2.20707 3.382 7.90756
0.200409 3.36363 7.85659
0.126507 3.34262 7.95421
0.101 -2.56211 9.06367
1.38598 3.26918 8.03615
1.30898 3.2649 8.03726
2.34594 3.17454 7.99836
0.0783073 -2.4611 8.92844
1.27201 3.10527 8.16629
-1.02396 3.03908 7.97824
-1.80984 2.94146 8.20308
-1.38035 2.92183 8.1915
0.658282 2.91531 8.24079
1.70443 2.89964 8.29287
1.26452 2.83614 8.12076
1.24414 2.83979 8.23919
-0.72088 2.82001 8.18084
0.841188 -2.28067 8.96098
1.1038 2.81006 8.21381
0.584288 2.81751 8.2882
1.14085 2.81356 8.34605
-0.709837 2.75178 8.27579
0.856387 2.73164 8.25797
0.734641 2.67597 8.216
1.64101 2.67775 8.26782
1.44979 -2.12484 8.66602
-1.87068 -2.10336 8.76645
3.03495 2.71028 8.50003
-1.35173 -2.04825 8.62571
3.05605 2.63128 8.44754
-1.59694 2.56463 8.308
-1.33795 -2.05174 8.80346
1.48601 2.62277 8.63265
-1.39024 -1.98459 8.60952
1.25939 -1.97523 8.62944
0.437479 2.36199 8.50781
2.74474 2.40434 8.74014
1.49792 -1.88994 8.71016
1.47048 2.32581 8.41567
1.33007 -1.76499 8.42096
2.68737 2.33024 8.68602
1.3727 -1.7507 8.44041
-1.50916 2.2828 8.59601
0.0566528 2.28699 8.68102
-2.03915 -1.68295 8.42802
-0.00428503 2.26035 8.6448
0.151586 -1.63529 8.28416
-0.528328 2.22723 8.51809
1.08727 -1.59913 8.39235
3.26442 2.25059 8.85948
1.12989 -1.54084 8.27177
-1.47589 -1.54086 8.39282
-0.870106 2.19299 8.71596
1.79521 -1.52244 8.26771
1.29704 2.17803 8.73921
0.712478 2.14093 8.66318
1.28917 2.10296 8.68632
1.05507 -1.47686 8.14302
-2.1128 -1.4829 8.39953
-2.15998 2.08125 8.68479
1.70275 2.0468 8.80992
-2.01843 2.02331 8.69491
-2.25536 1.9939 8.74035
-2.30152 1.93926 8.51855
3.29074 2.02952 8.9902
2.84078 1.97816 8.8438
-0.722075 1.99022 8.92637
3.33119 1.94875 8.92861
1.3806 -1.29613 8.1218
-0.0850022 -1.28221 8.23684
0.869934 -1.21237 8.03947
-2.43682 1.84289 8.72217
-2.25692 1.76346 8.7428
0.80371 -1.12067 7.94388
-2.34906 1.74824 8.86253
-2.49537 1.73164 8.78506
1.5638 1.70525 8.84191
1.77953 1.7463 9.21419
-0.778304 1.6788 8.84113
0.347234 -1.01026 7.83372
-1.01771 -1.02012 8.06096
1.65363 1.68839 8.99526
-0.713172 1.66204 8.82774
0.71161 1.65216 8.91777
1.83746 1.63874 8.95813
0.18087 -0.941451 7.87495
-0.994673 1.62916 8.91157
-0.888938 1.61344 8.91648
3.02267 1.60438 9.01938
3.10487 1.67464 9.40177
0.048551 -0.876477 7.76315
-1.01161 1.61443 9.06876
-1.20698 -0.857099 7.79619
1.64863 1.59855 9.08506
0.505714 1.58315 9.00197
0.462106 1.559 8.97291
-0.324583 -0.83432 7.89287
1.35601 -0.801137 7.75901
-1.38974 1.51756 8.87849
-2.11276 1.49017 8.92918
-2.82988 1.49631 8.9967
-2.04202 1.50326 9.18064
-1.64326 -0.748093 7.75548
3.55411 1.48562 9.35725
-1.57604 -0.708569 7.7951
0.527976 1.39328 9.02899
-1.88328 1.39073 9.14583
3.53117 1.36631 9.23183
-1.77367 1.35129 9.1417
-0.712681 1.31834 9.08337
-2.34571 1.30008 9.27118
-0.708719 1.24561 9.02789
0.390775 -0.568151 7.60418
-3.15296 -0.722919 10.7028
-2.74723 1.22682 9.22232
0.871744 -0.507093 7.54219
-0.332737 1.21283 9.2647
-1.26874 -0.495821 7.60372
-1.1265 -0.486742 7.49644
3.22108 1.22421 9.55324
0.121367 -0.492113 7.61741
0.927433 -0.492949 7.56286
-0.763525 -0.475197 7.607
-0.0771453 -0.472251 7.60014
-0.0236329 -0.475603 7.61351
-1.18452 -0.458188 7.51877
0.0481527 -0.462558 7.64427
-0.157231 1.14516 9.24103
0.104375 1.12455 9.27798
-2.62267 1.11773 9.40433
-0.693129 -0.378347 7.41797
2.2891 -0.360497 7.43058
0.638452 0.963963 9.38774
-2.6231 0.945705 9.24447
2.15556 -0.32645 7.39806
-0.392464 -0.28633 7.408
-2.83554 0.957088 9.37252
1.55191 0.73289 7.45666
2.27406 -0.23519 7.32406
0.368081 0.86645 9.26813
-2.87707 0.880436 9.51256
1.09792 -0.219337 7.37926
1.25702 -0.182511 7.28404
-2.72872 0.840926 9.54532
-2.01711 0.807298 9.59404
-2.97407 0.801205 9.61275
1.33282 -0.125753 7.31383
1.5042 -0.0913585 7.21817
-1.94966 0.774673 9.58552
1.55358 0.559007 7.2088
1.33711 -0.0567525 7.24282
3.49338 0.708867 9.62107
2.00699 -0.0398818 7.2359
-2.94729 -0.0112675 10.0761
1.17038 -0.0045241 7.27662
1.55178 -0.00684845 7.2828
1.9477 -0.00413472 7.14168
1.35848 0.0101083 7.17468
1.60981 0.0459743 7.07478
1.81062 0.0438403 7.07163
1.19745 0.0970419 7.23248
1.51957 0.111459 7.12915
-2.28257 0.612877 9.55762
1.16877 0.151404 7.26561
1.33704 0.177793 7.05932
1.53994 0.38332 7.06128
1.64442 0.213062 7.08014
1.607 0.244111 6.98833
0.208981 -1.49381 8.24747
-2.35593 2.05732 8.57517
-0.16767 2.2332 8.62287
3.66954 0.570292 9.84916
-1.10848 3.64312 7.62816
3.62638 0.614015 9.92796
0.920324 2.28146 8.50236
0.803004 2.35066 8.54415
1.21847 -0.0418473 7.25746
-0.49908 3.64495 7.73606
-0.214629 1.76924 8.87017
0.542711 1.67211 8.9168
1.88791 2.72268 8.07051
0.955622 -0.218466 7.49524
1.82817 1.60451 9.12519
-1.15506 -0.861775 7.81686
-0.579779 3.54765 7.82078
-0.183602 -2.86526 9.44517
-0.621471 3.1163 7.89239
0.696439 -0.618188 7.58478
-0.0414931 -0.543783 7.55624
-0.519072 3.75152 7.47352
-1.26625 -0.778766 7.69627
0.128705 -1.26852 8.07441
-0.404298 2.33956 8.46988
-0.173586 -2.27431 8.85985
-2.30463 2.16334 8.68845
1.9214 -1.85267 8.47426
1.62302 2.44916 8.38888
2.69763 2.63555 8.58023
0.453095 1.23066 9.22459
1.60716 2.74632 8.20255
0.966762 2.15785 8.54522
-0.184127 -3.07331 9.46699
1.59233 3.2226 8.02396
2.54432 3.05939 8.15096
