2.29927 3.42523 6.61071
2.01567 0.479229 5.41799
1.21181 -0.219349 4.84502
4.22533 3.77974 10.49
2.2733 2.62375 6.417
1.99768 3.27845 6.34112
1.1722 -1.59985 4.28537
1.89493 0.548059 5.33564
1.66411 -0.322341 4.96245
1.66112 1.95275 5.69169
2.40706 1.09513 6.434
2.70777 3.87823 10.4456
0.964563 -0.0516305 4.81159
1.43242 0.380346 5.11311
1.78645 0.622966 5.32456
2.14398 3.34159 6.42904
-0.345671 5.38267 7.77022
2.16351 2.10584 6.17479
1.1409 0.631128 5.0748
2.54437 1.2889 6.78847
1.651 -0.475708 4.91786
2.13153 1.88057 6.06011
1.70042 -0.690831 4.87706
2.62422 2.32474 6.99837
0.013942 5.59795 7.04036
2.56731 1.27127 6.85377
1.07735 0.100666 4.87197
1.37467 1.07813 5.41307
1.97548 1.02794 5.53835
2.00528 -0.387498 5.33237
3.52837 3.70752 10.9711
1.96138 0.173979 5.3504
1.69769 0.277616 5.17006
1.53252 1.05332 5.49489
-1.04639 6.01024 6.51856
1.83419 2.10486 5.81843
2.20928 2.13284 6.21379
2.43337 1.55249 6.59549
1.96202 0.60677 5.39665
1.79673 2.51235 5.95667
1.05375 -0.193886 4.79341
-0.806045 5.38091 7.98144
2.94167 3.97636 9.98264
1.65739 -0.232122 4.97805
1.07846 1.38192 5.38285
-0.861321 5.28022 8.22615
1.45659 -0.461252 4.80436
2.06876 0.700704 5.56622
1.43132 3.91762 6.36755
2.22646 3.22331 6.48153
2.10243 0.442326 5.49631
3.82006 4.3382 9.08421
-1.82993 5.90892 6.91946
-1.22635 5.8752 6.81671
2.29477 0.152096 6.16087
1.16445 -1.59912 4.29348
1.8559 -0.0561541 5.20884
2.62257 2.30764 6.96192
-0.995137 5.87245 6.74983
2.23942 0.476882 5.96808
1.73738 2.57589 5.93924
1.90835 0.928226 5.48241
1.90024 0.444868 5.30658
2.03494 0.0274394 5.4412
0.269973 5.9492 6.23282
2.11193 0.468093 5.51588
1.15354 -0.311349 4.80294
1.77499 0.53679 5.29662
2.2051 2.23893 6.24379
4.55509 4.08766 9.52095
1.65815 1.49946 5.53412
1.71896 0.284783 5.18957
1.47376 -0.461846 4.81933
-2.23861 6.71593 5.88615
1.73184 1.3868 5.5897
1.88889 -0.298433 5.20122
4.12112 4.01818 9.74327
1.19216 -0.442357 4.77215
1.46529 -0.461574 4.8117
1.73958 -0.500641 4.969
1.27071 1.52846 5.49142
2.90237 3.7622 7.60097
2.86782 2.77455 7.57853
-0.646674 5.84244 6.72132
2.63303 1.83322 6.96135
1.85375 0.103151 5.22882
1.65375 1.4783 5.56831
1.85248 2.79011 6.0447
2.12845 3.34996 6.43866
1.61219 -0.0194052 5.03486
2.64329 1.8788 6.98037
1.16573 -0.31412 4.79713
1.86299 -0.0356462 5.21897
1.7866 0.760713 5.38838
2.08645 1.93182 6.02684
1.60499 1.40391 5.55098
-1.90604 5.59938 7.93147
2.08432 0.329486 5.46235
1.84188 0.160613 5.25107
2.23898 1.87912 6.22736
4.57837 4.0644 9.47039
1.25714 1.02246 5.33824
2.14138 1.88354 6.09053
1.59665 -0.327316 4.91662
2.10992 0.942658 5.68607
1.67385 1.45187 5.58805
4.2214 4.19483 9.21559
2.0743 0.369449 5.47609
2.27123 3.8416 6.68255
4.57301 4.07232 9.48918
2.20263 -0.611798 5.92386
2.16785 2.09711 6.15806
3.47269 4.44325 8.80581
3.82285 4.3275 9.06921
1.53491 1.52825 5.53432
1.44153 -1.40385 4.42537
3.94358 3.7434 10.6378
1.6587 -0.758264 4.83941
1.60648 -2.9903 4.10761
-1.41345 6.29053 6.01529
1.44205 -0.00605429 4.95955
1.89775 0.93391 5.49735
1.85347 1.40562 5.60028
1.82175 0.0971202 5.22207
1.99654 0.397978 5.39248
4.18767 4.1316 9.46849
1.91303 -0.0429825 5.25078
3.74825 4.63032 8.14139
1.65092 -0.524418 4.90732
0.850274 5.74988 6.37652
1.64776 1.96047 5.70872
1.48861 5.56781 6.63166
2.23556 0.420123 5.98494
1.76649 4.04429 6.47999
2.12323 1.27644 5.80222
1.14507 -1.62209 4.29164
1.86624 3.048 6.12524
2.69648 3.19982 7.2105
1.29158 -1.91379 4.26044
1.70827 -0.822086 4.84186
1.0984 -1.73783 4.26348
1.37058 -1.3552 4.41287
1.86144 -0.444094 5.13742
1.48235 -1.9997 4.3155
1.38646 0.419869 5.09593
1.21323 -1.56333 4.30581
1.51635 -1.00642 4.63216
1.74142 2.56875 5.93328
-1.24203 6.04038 6.45776
1.74275 3.94612 6.43616
1.22135 -0.845215 4.58994
2.33325 1.47733 6.41232
1.12523 -1.6976 4.28009
2.32039 1.45439 6.33959
1.59959 -0.499966 4.86027
-2.21247 6.69194 5.88742
1.33418 -1.00634 4.54807
1.215 -1.21254 4.4352
1.32461 -2.72292 3.87721
1.94365 1.44444 5.69892
2.02477 3.2399 6.36055
1.34897 -2.70398 3.9016
2.63641 1.87386 6.97059
4.6965 4.01137 9.70426
-0.181473 5.35094 7.70921
0.946278 -1.46671 4.29511
4.56723 4.09892 9.53433
1.45015 -0.929303 4.61756
1.48109 5.55804 6.64102
0.0025534 5.62223 7.06728
2.37473 2.78889 6.52872
1.23056 -0.222691 4.84853
1.42616 -0.742222 4.68704
2.24424 3.18854 6.51915
1.9441 -0.6771 5.23393
1.4604 -1.35263 4.44056
1.45624 -0.245184 4.87281
1.10786 -1.73859 4.25465
2.60585 3.49636 7.17489
2.32355 0.035524 6.22689
1.03524 -1.80265 4.21914
1.57834 1.28095 5.52508
1.18964 -1.2233 4.42658
2.00734 3.24447 6.30342
1.37152 0.162936 5.00784
2.70639 3.40888 7.2908
1.86895 3.23226 6.18891
1.66914 -0.0989677 5.04159
1.53917 -1.20309 4.57482
1.66652 -0.25805 5.00409
2.68463 2.19054 7.07547
1.69852 -3.16722 4.21535
2.08287 0.366028 5.47025
1.9514 0.456002 5.34894
1.28992 -0.773296 4.64927
1.74287 2.97553 6.06181
1.8725 2.70071 6.06601
1.05266 -0.658467 4.64407
1.38522 -0.753093 4.6534
1.43481 -0.746566 4.67387
2.0967 1.04102 5.67955
1.2742 -0.0524348 4.90329
1.23985 -1.7442 4.29313
1.71759 -0.636689 4.885
1.68437 -0.267494 4.97933
2.08957 -0.454445 5.57903
1.60355 -0.194686 4.93033
1.66938 -0.315691 4.95643
1.45415 -1.5511 4.40874
1.64785 -2.28964 4.33457
1.56377 -0.837413 4.72025
1.37898 -1.46246 4.39707
2.56218 2.40138 6.89428
1.85324 1.45578 5.62244
2.04635 0.305962 5.47448
1.68441 -1.22604 4.72457
1.51268 -0.207527 4.8882
1.86582 -0.069599 5.22836
-1.15596 6.18947 6.17203
1.33104 -1.03755 4.52348
0.954017 -0.825767 4.5719
1.70127 -0.0617382 5.07585
1.65059 -0.960899 4.72682
-1.24743 5.89177 6.81287
1.45922 1.49435 5.51538
1.38844 -0.0471765 4.93079
1.88936 1.45285 5.6108
1.09922 -1.67246 4.26664
-1.42701 6.31489 6.02809
1.64274 -2.17607 4.32671
2.00164 -0.0838292 5.34905
1.63356 1.49115 5.58018
1.41477 1.32737 5.49281
1.93473 0.840977 5.49924
1.1049 0.193359 4.92399
-0.828308 5.41167 8.00905
-1.00356 5.88272 6.75853
1.51696 -1.2664 4.53702
1.50663 -1.41801 4.48439
-1.23149 5.88671 6.81417
1.46061 -1.55097 4.40259
1.5891 1.26357 5.53735
-1.26094 5.90924 6.8528
1.04834 0.856722 5.16357
1.50151 5.56734 6.62119
-0.696846 5.88953 6.69304
-0.714004 5.88534 6.69159
1.18467 0.848278 5.21148
1.83411 0.0606912 5.23626
1.84456 0.395187 5.2725
0.953885 -0.0222094 4.81955
1.00932 0.0198295 4.84191
0.919306 -0.355064 4.7409
1.37213 0.43409 5.11462
1.46935 -0.983042 4.61102
1.45153 -0.340728 4.84791
1.66232 -1.00592 4.74042
1.73656 -1.29188 4.76547
1.7432 2.97788 6.06457
1.37959 1.06857 5.45655
1.6706 0.325843 5.15563
1.37096 0.163008 5.0085
1.61525 1.22078 5.54265
1.74302 0.0337792 5.12714
1.54035 -1.34332 4.51944
1.4645 5.56059 6.63463
1.53949 -1.09148 4.60579
1.46358 -0.885754 4.64218
1.41834 -1.55064 4.36327
1.7306 0.872668 5.48111
3.91333 5.51711 6.34789
3.52587 5.52651 6.39877
1.65984 0.98478 5.50341
0.351257 -2.92446 3.78452
0.693486 -2.79925 3.74831
0.555098 -1.28747 4.47363
0.870963 -2.86949 3.71707
0.949105 -2.32371 3.92964
0.857031 -1.31797 4.37674
2.08311 3.32541 6.52765
1.23575 -0.381407 4.83389
0.692424 -0.25762 4.84412
0.361879 0.0659601 5.18516
0.297278 0.910955 5.67865
0.267697 0.0377029 5.26567
1.38381 0.0404747 5.00321
0.771173 0.00307332 4.95458
0.384892 0.0218799 5.14313
0.363127 0.0178105 5.15336
0.211482 0.00199476 5.27259
0.689619 -2.85063 3.72869
0.351292 -0.0126661 5.14039
0.282931 -0.0949584 5.17401
0.807875 -2.84653 3.71162
0.985194 -0.0509605 4.85883
1.41298 -0.0343414 4.99394
0.483815 0.209041 5.18458
0.282926 -0.0573168 5.20197
0.332563 -0.0581424 5.14407
0.723502 -0.155264 4.91651
0.909348 0.293259 4.94258
1.51534 0.471992 5.21995
0.753116 -2.47728 3.89371
0.325781 -0.299644 5.06395
0.689125 -0.267275 4.84007
4.74955 4.69426 9.22123
0.34844 -0.321057 5.02063
0.689899 0.523098 5.22016
0.532969 0.525744 5.32817
1.3494 -0.295123 4.89541
5.16851 4.57905 9.45202
0.290088 -0.364484 5.04748
0.735214 0.55649 5.20609
1.51465 -1.89984 4.38051
1.21714 -2.23244 4.1614
0.24464 -0.68791 4.89799
1.52571 -1.85571 4.37295
0.902098 -0.422021 4.761
0.968055 -0.434037 4.75317
0.230412 -0.487225 5.02769
0.7377 -2.01963 4.07524
1.213 2.3754 5.89149
0.275841 -0.506303 4.99755
1.00925 -0.46346 4.73046
2.01622 1.23539 5.73692
1.77614 0.883517 5.56248
1.39754 -0.501429 4.81138
1.79894 1.21197 5.65431
0.416829 2.2293 6.21115
1.32539 1.17585 5.48077
1.25174 -1.52093 4.35741
1.24006 -1.95334 4.26217
1.24776 -1.94346 4.2652
0.336612 -1.8292 4.30634
1.51711 -1.89329 4.36935
1.76511 0.998404 5.57934
0.58454 -0.651548 4.76576
1.70428 1.00605 5.57769
1.47958 -1.87899 4.381
0.537872 -1.28862 4.49927
1.25785 -1.6767 4.33756
0.153467 -1.19892 4.76398
1.45459 -1.62463 4.40655
2.0081 1.27179 5.74331
1.70767 1.48092 5.68808
0.660478 -0.91807 4.62051
0.647991 1.15989 5.51811
1.2571 -1.4882 4.35914
0.417635 -0.95616 4.6815
1.26178 -1.4491 4.36488
1.44767 1.33849 5.55823
0.40988 1.23926 5.7464
0.416222 1.25535 5.75326
0.653042 -0.911917 4.63587
0.149607 0.558535 5.7029
0.136924 1.49439 6.2627
0.71616 -1.98749 4.10187
0.719634 -1.97863 4.08942
0.715012 0.568817 5.21602
0.664681 -0.638858 4.74198
0.379972 2.33236 6.26502
1.75061 1.5877 5.70168
0.693959 0.849729 5.30014
1.77061 1.00011 5.59225
1.52715 0.0254971 5.0634
0.192023 -0.149589 5.23182
0.181698 -0.151309 5.24255
0.178573 -0.0430034 5.28184
3.43242 5.35313 7.74526
1.71992 1.51447 5.68531
0.364711 1.97453 6.19016
0.313527 -0.213369 5.08685
1.49624 1.01429 5.57732
0.701816 0.633085 5.21711
4.89387 4.85883 8.74138
1.33446 -2.7589 3.88507
0.180414 -0.0250256 5.30843
0.943245 -1.65561 4.24314
0.95855 2.41294 5.96789
1.89855 1.07442 5.61095
1.32515 -1.6894 4.36924
0.39656 1.99981 6.14851
1.4434 -1.64416 4.40693
1.38462 -2.37829 4.16797
0.489071 0.0260251 5.11541
0.0894219 3.52311 7.0416
0.823012 -2.27152 3.94531
-0.0607112 0.361733 6.26411
0.666374 -0.344364 4.88738
1.43432 -0.316266 4.90396
2.12787 3.27336 6.54613
0.26298 0.0375334 5.24922
0.495243 0.0560521 5.10058
1.06947 3.62484 6.33897
0.756575 -1.35412 4.37653
1.74459 0.920556 5.54714
0.119012 1.58174 6.30851
0.198296 -0.446485 5.08793
-0.0613419 2.27606 7.43869
0.179619 0.781286 5.79298
4.9786 4.65867 9.33872
0.481688 1.79213 5.99576
3.91267 4.92312 8.65904
0.168146 1.7176 6.34645
0.0125374 -1.34363 4.90335
0.159036 1.59608 6.25533
1.2408 -1.21585 4.46859
1.4292 0.377346 5.17029
0.230126 -0.572159 4.97146
1.56119 4.41435 6.6619
0.948784 0.137763 4.88657
0.719318 0.295993 5.17071
-0.0391702 2.39291 7.30301
-0.0227082 0.0996769 6.02581
0.22453 0.123858 5.32069
-0.0832582 0.10354 6.16574
0.159001 0.740303 5.79392
1.3193 -1.03532 4.56832
0.838325 -1.02658 4.52811
5.21058 4.60624 9.52104
-0.020534 0.12325 6.02877
0.708886 3.3558 6.50515
0.268957 -0.98987 4.76909
0.0911835 -1.01303 4.95937
0.168478 0.164667 5.43589
0.853107 3.86923 6.64598
1.46827 -1.21013 4.5436
0.116179 -0.953843 4.92755
0.256385 0.031119 5.24317
0.123045 1.35791 6.15531
0.587108 -0.934699 4.62939
0.31347 1.30939 5.88058
0.172932 -1.91031 4.37013
0.217007 -0.549108 5.02636
1.79247 1.41827 5.71854
0.30053 -0.465526 4.97376
0.470848 1.79379 5.99556
0.303371 -0.169367 5.12512
1.54136 -1.94796 4.37877
3.94432 5.04865 8.4332
0.690765 1.21042 5.49017
0.289454 1.85604 6.21202
0.295991 -1.84619 4.32816
0.273185 0.0910465 5.25574
1.40477 4.20549 6.55647
0.353549 -0.972522 4.68648
0.8542 -2.85978 3.71455
0.734397 0.241378 5.14023
0.267201 -0.989315 4.75821
0.463108 1.90033 6.03826
1.49766 -1.8981 4.38824
0.107353 -2.9385 3.87119
0.091557 -2.93916 3.87343
0.257771 1.12986 5.84977
1.92075 1.21794 5.69619
0.817856 -2.942 3.6892
3.63572 5.32313 7.77295
0.306895 0.218364 5.29098
0.650961 0.983952 5.38713
3.78066 4.90773 8.70093
0.329269 2.24917 6.32723
2.75071 5.49377 7.40455
1.86859 1.10158 5.64018
1.85099 1.08269 5.62149
1.7755 1.03519 5.58328
0.712465 0.420404 5.1864
1.7621 1.01406 5.57834
22.5731 -5.00994 31.8173
1.69364 0.385231 5.26494
0.447486 -1.55786 4.40345
0.689483 0.844512 5.28272
0.733697 0.835294 5.25992
0.231142 0.291218 5.42567
0.0547503 0.831116 6.12376
0.942428 -1.52 4.29256
1.70002 0.420115 5.26736
0.427485 -0.342835 4.96686
0.452394 0.787151 5.50956
1.75021 0.919534 5.55805
3.44383 5.35961 7.76193
0.269872 2.61977 6.49226
1.48194 -0.00227917 5.019
0.178441 -0.0910128 5.28626
5.28395 4.5726 9.54259
4.99365 4.58431 9.58934
0.180266 -0.0998157 5.27954
0.8119 0.454429 5.06676
0.761603 -1.3558 4.38827
0.768773 -1.36606 4.36821
0.342095 -0.656037 4.86216
4.97006 4.65307 9.32587
4.99491 4.68865 9.3851
0.541403 -0.615731 4.79506
1.79924 0.711586 5.45884
0.156234 0.555441 5.68401
4.85504 4.67942 9.19442
0.716379 -2.63803 3.81803
4.75489 4.69241 9.25559
0.115453 -0.305527 5.28276
0.715842 0.398142 5.19036
-0.143921 -2.74912 4.30758
0.153546 0.16054 5.46242
5.29422 4.57612 9.51023
3.23348 5.24186 7.85152
0.362614 -2.91125 3.77616
0.761315 -2.18663 4.00454
0.45763 1.92449 6.06203
2.60381 5.53402 7.36559
0.47006 -0.0347626 5.089
1.85811 0.440658 5.36647
1.04732 3.61212 6.34257
0.284561 -0.0797906 5.19234
0.700062 -1.07261 4.55005
0.753319 1.2457 5.40983
0.515247 -0.93731 4.64797
0.42992 0.0475069 5.14916
0.26946 -0.903767 4.80492
0.299327 -0.828169 4.81737
0.657106 0.942732 5.37365
0.680152 0.937797 5.36594
1.71598 1.00368 5.60304
0.202137 -0.522615 5.03455
1.04597 -0.316107 4.78983
0.873208 -0.306784 4.79307
0.313886 -0.32015 5.05647
1.40983 -0.215872 4.93419
0.204949 -1.52556 4.52058
4.79582 4.8872 8.49569
1.15768 -2.93328 3.76578
0.270619 -2.77379 3.8867
0.233926 -0.511573 5.02609
1.18457 -2.28932 4.10628
0.201046 -2.54591 4.00306
2.19918 3.21775 6.61798
0.12392 -0.559525 5.14663
-0.354842 4.41802 11.3193
0.599675 -0.541134 4.79025
0.858415 -1.97459 4.07695
0.335374 -0.664608 4.87416
0.910133 -0.422028 4.77433
0.766613 -2.27813 4.00081
1.18082 -2.2891 4.12058
0.832882 0.793536 5.16928
0.748364 -2.73222 3.75839
0.0916928 -2.22979 4.2574
0.201439 0.020281 5.31483
0.795194 0.0229374 4.92773
0.378172 -0.961416 4.68532
1.52444 -1.90803 4.38304
-0.109732 -1.92612 4.7715
0.175529 3.30726 6.83404
0.474893 1.77953 5.96599
0.273671 -1.10653 4.67107
2.76761 5.51212 7.43838
2.73852 5.46989 7.36403
0.651082 -0.915361 4.6246
0.851474 -0.198273 4.84294
0.32489 -0.941559 4.71927
0.613998 1.28288 5.61053
0.11832 -1.49167 4.64811
1.08022 3.62029 6.36224
1.376 -0.990672 4.60833
0.181788 -0.0449397 5.30232
0.176547 1.4232 6.17255
0.737678 1.26132 5.4476
1.49159 -1.26058 4.55788
0.129821 -1.48357 4.64046
0.126186 -2.23861 4.21309
0.798706 0.0916343 4.92142
1.00934 -0.339929 4.77278
0.977208 -1.9965 4.0786
0.0243846 -2.03834 4.45098
3.72289 5.70023 6.68544
4.14515 5.72445 6.63555
0.236075 0.133015 5.31119
-0.0278131 -0.111724 5.941
0.8477 2.15495 5.89603
0.325745 -1.16541 4.63937
1.2777 -1.60003 4.34135
-0.0433051 -1.59355 4.85432
0.610503 -1.45821 4.38689
0.0953054 -2.94706 3.88175
1.40855 -1.36909 4.47296
0.67662 -1.32134 4.43569
1.22532 -1.31775 4.41849
0.222329 2.40216 6.49072
0.0139519 -1.3573 4.89089
5.28439 4.56735 9.5307
5.29936 4.58399 9.52536
4.99555 4.55435 9.5048
0.451462 1.9308 6.0875
1.53997 1.99583 5.76312
0.219176 -2.44389 4.0439
4.98663 4.66933 9.36391
0.437293 -2.82724 3.8078
1.29196 1.55437 5.5819
0.438386 1.38198 5.81566
0.0743849 -0.978036 5.00986
0.192566 1.12301 5.95817
0.478103 -0.786035 4.75979
0.673002 0.933964 5.34823
1.84397 1.07933 5.60442
0.301038 0.913079 5.69926
1.76389 1.03275 5.56072
0.204093 -0.524879 5.06291
0.311593 -0.40991 4.98852
0.728989 0.560766 5.18443
0.449046 -0.384116 4.92902
0.56666 -0.360333 4.90419
0.348179 0.500054 5.425
0.689095 -0.320666 4.84716
1.68258 0.378391 5.24627
0.241374 0.255982 5.39653
0.731459 -0.152719 4.93907
3.90546 4.91293 8.65188
0.915457 -0.0805885 4.83567
0.777913 0.074234 4.97147
-0.33599 4.68086 10.1705
0.319712 -0.00589333 5.17261
0.0614604 -0.699364 5.18165
0.329151 0.512824 5.4595
1.66672 0.428091 5.26464
0.827251 -0.232239 4.83296
-0.0142719 0.259708 6.06825
0.224445 -1.97392 4.28198
1.07112 -0.659418 4.68823
1.23703 -1.96582 4.25123
0.161657 0.0527576 5.37962
0.666918 -0.636649 4.75203
0.356399 -0.308042 5.02717
0.0626517 0.705954 6.09736
0.154984 -2.46416 4.08711
0.0743589 -2.82358 3.948
0.513688 -2.59611 3.88728
0.328093 -0.965956 4.71153
0.530676 -2.08259 4.12709
0.27968 -0.0948877 5.18914
1.39138 3.28051 6.17766
1.41135 0.0467399 5.02818
0.760171 0.640762 5.19997
0.28144 -0.98063 4.7908
0.0837331 -2.23685 4.27084
4.99323 4.67749 9.37993
0.297209 -0.542628 4.96913
0.0864524 -2.16973 4.30728
0.434581 -0.97443 4.65769
0.0455942 -1.05855 5.04443
1.35336 -0.975698 4.60771
1.16661 0.0953419 4.94269
3.703 5.69835 6.64307
0.776073 0.12414 4.99566
0.111317 1.66311 6.35578
0.118254 -2.91167 3.87432
0.896593 -0.558547 4.72084
0.503514 0.738848 5.42942
0.240127 -0.176294 5.15795
0.464454 -1.5508 4.41146
3.62428 5.3223 7.80764
-0.125816 -2.8635 4.19896
0.224684 1.0002 5.81699
0.112044 -2.241 4.20766
1.4157 4.21616 6.57521
0.608553 -1.202 4.51786
1.18873 -1.60655 4.31762
0.564369 -2.84177 3.75155
1.05054 -1.80827 4.23224
1.3636 0.194633 5.08041
0.478144 -0.253446 4.9895
0.485626 0.0201416 5.10488
1.77538 1.03822 5.59411
0.361006 0.0749542 5.19002
0.109966 -0.323176 5.2915
0.19927 0.0166641 5.33705
0.441931 -2.83137 3.8191
0.522119 -2.85835 3.77455
0.318839 0.529934 5.45447
0.0858816 -2.16556 4.29506
0.54772 -0.422597 4.90072
0.890939 -1.79641 4.15844
-0.081275 -1.91876 4.73688
0.117886 1.53939 6.33052
1.17048 -1.61409 4.32112
0.358943 -2.92841 3.79438
0.673692 0.953846 5.37103
1.18027 -1.60279 4.3031
0.0966821 -2.93383 3.85458
0.240723 -2.85849 3.85811
0.11661 -1.48842 4.63782
0.274431 0.086381 5.23483
0.19127 -0.0274943 5.31708
1.3382 -1.27875 4.50574
4.9368 4.6404 9.295
0.835969 -1.03653 4.53121
0.540827 -0.563785 4.84122
1.11312 3.14192 6.1623
0.669622 -0.589959 4.78266
0.714861 -1.98809 4.08431
0.923833 3.03719 6.21161
0.840083 -0.204918 4.82333
0.78769 0.335385 5.04979
0.240743 0.990204 5.77976
0.224335 0.991334 5.79839
0.783313 -0.660945 4.67031
0.558679 -2.86561 3.76753
0.822743 -0.540883 4.7157
0.966571 2.40511 5.9498
3.63014 5.32385 7.79027
0.36993 3.65323 6.81561
0.181423 2.86508 6.61851
0.336084 -1.45138 4.47706
0.392102 -1.24986 4.55976
0.332892 -1.27148 4.55313
1.7565 1.0007 5.59756
1.04126 -1.0444 4.54076
0.197062 -2.55325 4.01328
0.70825 1.82997 5.84236
0.851947 0.800365 5.17399
0.714844 0.302869 5.17693
0.679047 -0.681335 4.70984
1.00097 -0.40563 4.77041
0.852779 -0.503174 4.7264
0.13406 -2.28956 4.18433
0.748075 -2.51646 3.86492
1.16498 0.133335 4.94508
0.278802 1.07852 5.80077
0.205818 -1.51885 4.53773
-0.0213191 -1.60529 4.8282
0.544339 -2.88382 3.73858
1.25644 -0.396433 4.85207
0.378524 -0.958133 4.71468
1.06383 3.6182 6.37091
1.17015 -1.36921 4.35861
0.455236 1.91638 6.08902
0.853046 -2.84807 3.68645
0.553568 -2.85662 3.74739
-0.0530591 -1.75526 4.73821
0.226926 -0.829333 4.86989
0.321116 -0.369838 5.00083
0.112939 -2.42096 4.13545
1.61016 3.28651 6.20834
0.514369 -0.4364 4.89071
0.828947 -0.443696 4.76882
1.30607 -0.770443 4.70847
0.986124 -2.58524 3.83283
1.07331 -2.87685 3.78451
0.0222289 -2.74145 4.07012
0.234225 0.916715 5.7663
0.241998 -2.0273 4.2316
0.845837 -0.349928 4.76622
0.334214 -0.650526 4.84806
0.370416 -1.23687 4.55972
0.32708 -2.28053 4.08434
0.281709 -2.3922 4.04003
0.446895 -1.70168 4.35675
0.911212 0.249999 4.93065
0.296432 -1.44338 4.54896
0.97754 2.40812 5.96423
0.206491 0.617135 5.64188
0.361615 0.891047 5.60983
1.52111 -0.267141 4.95619
0.680988 -2.54549 3.91368
0.346969 -0.403443 4.95316
0.569782 -2.04956 4.12481
1.2173 0.00096749 4.95659
1.47532 -1.8439 4.39519
0.266515 0.0375338 5.26226
0.459515 -0.00680883 5.11724
0.937582 -0.219864 4.78825
0.563646 -0.178423 4.99121
0.127343 -0.432717 5.22568
0.349125 0.498813 5.43005
0.726685 0.596669 5.1932
0.554867 -1.97901 4.17958
0.965967 1.96717 5.72522
0.363807 -0.979513 4.71554
0.830613 -0.166053 4.83211
1.00817 -0.802412 4.60025
0.615783 -1.20874 4.51987
0.858319 -0.426041 4.7427
1.78678 1.45669 5.64293
0.830663 -0.138091 4.84069
0.317433 0.0754925 5.21946
3.25189 5.17284 7.46968
0.600786 0.878983 5.4045
0.652385 0.493214 5.23532
0.273617 -0.00918522 5.23754
0.225673 0.912989 5.76096
0.378482 1.31289 5.79811
0.565563 1.25403 5.62366
0.806868 0.680356 5.12268
1.75644 1.18606 5.57021
0.353236 0.690289 5.52802
0.289872 -1.09232 4.69731
0.276128 -0.902618 4.82866
0.429329 -0.962026 4.69217
0.260024 0.0302301 5.25371
0.311172 0.00955488 5.20226
0.23401 -0.488389 5.041
0.410797 1.25348 5.73741
0.707523 -2.86911 3.75814
0.444844 -1.0086 4.67649
1.29181 2.36412 5.80693
0.38804 0.523803 5.416
0.510173 -0.320059 4.95266
0.952209 -1.15727 4.46425
0.726165 0.610127 5.19428
0.251195 -0.688442 4.91804
0.825976 -2.87042 3.74479
0.473045 -0.0364634 5.0967
1.80321 1.06552 5.53373
0.316351 -0.214275 5.09598
0.584449 -2.86524 3.78649
0.723028 0.551891 5.17664
0.266808 0.53352 5.50909
0.31031 0.535939 5.47733
1.09812 -2.64973 3.86315
0.363041 0.164802 5.24563
0.549031 -2.08916 4.12383
0.503786 -0.13027 5.05324
1.51401 -1.86098 4.37234
0.910698 -2.89461 3.75317
0.127423 -1.49782 4.67358
0.934101 -1.34099 4.39201
0.597396 1.29015 5.61416
0.625258 -1.46769 4.41863
0.344306 -1.46076 4.51346
0.829409 -2.88242 3.7412
1.65673 1.45795 5.60791
0.326732 -0.960811 4.74316
0.711094 -2.81865 3.77577
0.313866 0.629551 5.52707
3.69596 4.73457 8.30334
1.15716 1.30773 5.41644
1.08523 -2.66355 3.87192
0.281762 -0.094709 5.19505
0.235238 0.126849 5.3273
0.669784 -0.916526 4.63043
3.41995 5.12266 7.48152
0.765979 -2.75571 3.78886
0.969687 -1.14842 4.47044
1.82696 1.42407 5.65234
0.165782 -2.48139 4.11602
0.331471 -0.365674 5.03653
0.751902 -2.43308 3.97547
0.684527 -1.32444 4.44484
0.335923 -1.8421 4.33744
0.921444 -1.76964 4.19661
0.121315 -2.43273 4.15278
4.68932 4.47032 8.92206
0.604692 -0.550417 4.81496
1.16764 -1.24562 4.45847
1.93119 1.21558 5.6201
1.25522 1.53568 5.50893
0.8549 -1.3236 4.41223
0.409436 0.0104637 5.1278
0.685696 -0.68341 4.72459
0.944317 -2.87252 3.76102
3.16143 5.25823 7.28895
0.49128 -0.884728 4.71032
0.730131 -1.43271 4.37042
0.389106 -2.94883 3.80542
1.17665 -1.37122 4.36991
0.396176 0.0235496 5.16999
0.573781 -2.88408 3.78687
1.37412 -0.227341 4.89543
0.335845 -1.84663 4.35578
0.970554 -2.33957 3.96694
0.338159 -0.900982 4.76638
0.698465 -2.5651 3.94725
1.02163 -0.947858 4.55013
0.893233 -0.452427 4.72762
4.71871 4.47582 8.94703
1.62514 0.878857 5.47205
1.28375 -0.130379 4.89594
-0.676016 5.2986 8.11054
1.05265 -0.232232 4.79225
1.40645 1.33087 5.49807
0.50747 -0.775039 4.7276
0.339615 -1.83415 4.319
-0.654289 5.28127 8.14173
1.84371 0.639445 5.37436
3.71294 4.74978 8.33528
1.50027 1.97727 5.68069
4.50431 4.50735 8.84668
0.541348 -2.08522 4.1043
3.43697 5.13763 7.51045
1.28109 -0.445031 4.79154
0.175375 1.72061 6.21031
3.71079 4.74877 8.33563
0.132489 1.71264 6.23964
0.642475 1.00092 5.38266
1.62353 1.21643 5.57187
0.356571 1.94805 6.0831
0.656593 4.24001 6.73354
0.708472 0.631285 5.17956
3.69995 4.74268 8.30521
0.259368 2.65215 6.3362
-0.0964218 0.10236 6.11766
-0.242886 4.62982 8.914
-0.117642 1.78651 7.00873
-0.993103 5.01094 8.189
0.216694 0.601512 5.61396
0.64724 0.95482 5.36152
0.171308 0.997962 5.81564
-0.00687503 0.934074 6.30915
3.88472 5.26138 7.02564
0.980714 2.28311 5.80608
-0.111383 0.0612325 6.13689
0.719208 0.437735 5.18188
0.265862 -0.00921126 5.21665
0.478944 0.579102 5.35617
0.222015 0.615115 5.58846
0.843267 2.25261 5.84906
0.39855 2.18496 6.07952
0.0346742 2.1799 6.54848
0.281641 1.00351 5.66672
0.479636 0.20237 5.16621
0.64396 0.965218 5.36763
0.151742 1.41249 6.08595
0.473519 0.75385 5.42754
0.677842 0.966112 5.31797
0.367162 1.97485 6.05842
1.58752 -0.312982 4.98352
-0.0617202 2.10458 7.05334
0.0112886 -0.0345778 5.72777
1.9818 1.22509 5.67778
0.213155 0.691554 5.60795
0.263573 0.468827 5.47009
0.663029 1.40052 5.58734
0.0115899 -0.0454793 5.70904
-0.0276028 2.92749 7.03468
0.280964 0.904112 5.62887
0.427892 1.89655 5.96885
0.135429 0.636483 5.72111
0.817575 0.730837 5.11689
0.795288 0.0838297 4.9421
1.67681 0.998275 5.52745
-0.116855 0.115384 6.16027
0.172199 2.2575 6.34257
0.853938 0.587899 5.06837
0.437885 1.67848 5.87926
0.0373766 1.87309 6.41362
4.74333 4.49916 8.98207
0.826318 2.12522 5.824
4.75641 4.51151 9.02832
-0.109009 3.80061 7.26469
-0.0521321 -0.0913516 5.91974
0.137251 0.557049 5.66146
1.02137 3.40833 6.17115
0.275567 -0.0135906 5.20991
0.520721 0.52316 5.29597
0.254281 0.670741 5.59446
0.226501 3.28617 6.59044
0.177346 0.467201 5.55273
0.663171 0.925546 5.31109
3.25412 5.17617 7.47654
1.02872 3.33538 6.13713
0.174071 1.07149 5.85708
0.059891 0.662973 5.96581
0.790871 0.0359917 4.94013
0.0746468 1.58141 6.24166
0.360269 0.814861 5.52634
0.73008 0.391248 5.17053
0.813369 0.0246073 4.91931
0.663909 1.25138 5.4686
1.41332 -0.211114 4.94185
0.268373 1.09057 5.73505
0.672583 1.20328 5.44429
0.0945868 3.43436 6.77367
0.603084 1.25338 5.54958
0.658344 0.817729 5.28585
-0.0606897 1.29636 6.67832
0.627498 1.1506 5.46538
3.71321 4.88077 8.13174
1.74449 1.01041 5.54985
0.37429 1.26931 5.70893
0.0818468 1.52416 6.2168
-0.0765147 0.385735 6.193
0.181374 0.707361 5.65693
0.603261 1.2993 5.59712
1.84254 1.43531 5.66718
0.142097 0.732517 5.74087
-0.0869203 0.355698 6.15406
0.815637 0.901473 5.20181
1.41539 -0.0295945 4.99424
1.49891 0.470017 5.18988
-0.0977277 3.82725 7.27183
0.909814 2.13013 5.78969
0.960282 2.32427 5.85226
0.83984 -0.15945 4.85295
0.786346 0.738112 5.14136
0.274638 -0.506115 4.99431
0.80172 2.2833 5.90217
0.281529 -0.0661448 5.19196
0.110133 0.478381 5.69968
0.707865 0.58049 5.19433
0.231458 0.986954 5.72119
0.440553 1.85534 5.9197
5.05856 4.43004 9.2113
4.70317 4.49185 8.94547
4.63836 4.52813 8.86666
6.6259 4.96359 7.61618
4.66867 4.69912 8.41826
-0.293892 4.6489 8.97539
0.075744 2.47436 6.53889
2.97464 5.35617 7.11193
-0.114163 1.80203 7.00725
0.001858 1.55471 6.45373
0.595304 2.15459 5.95578
0.139518 1.69359 6.24461
0.134977 1.71572 6.24892
0.361144 1.3046 5.74648
0.334727 1.93893 6.0927
0.330559 1.96025 6.08482
0.372243 1.97958 6.0729
0.387952 1.23054 5.68703
0.179383 1.25968 5.98863
-0.0641864 1.22848 6.64564
0.505731 -0.118323 5.04393
0.142276 1.19674 5.9625
0.172978 -0.0312308 5.29299
0.164609 1.11205 5.86813
0.466346 1.13964 5.61071
0.232972 0.259969 5.37472
0.593564 1.03346 5.44516
1.22394 1.24235 5.40831
0.177489 2.26269 6.35762
0.406695 1.24744 5.68395
0.393894 1.24607 5.68999
0.350671 2.30262 6.17127
-0.063157 1.0316 6.55342
-0.0885294 0.571451 6.39929
0.231482 0.938703 5.71977
-0.0158665 2.67869 6.9079
0.00156058 -0.500711 5.4137
0.0754957 0.84449 5.98587
0.0985578 0.809487 5.86659
0.0790206 2.88236 6.63185
1.46619 1.00572 5.51925
-0.0587274 0.783957 6.51388
0.184594 0.710172 5.67066
0.64026 0.615715 5.19997
0.122519 1.45533 6.14124
0.228562 3.29205 6.58265
0.66069 0.613602 5.22056
0.09743 0.500166 5.73062
0.111264 0.812149 5.87969
0.312916 3.60109 6.64671
1.2589 -0.224315 4.91347
0.72581 0.421439 5.15342
-0.0486783 0.252107 6.0243
0.247382 0.25219 5.34813
2.44991 5.34795 7.06977
0.155872 -0.508648 5.10318
1.05881 -0.315732 4.81407
0.272366 -0.0141369 5.20061
0.310169 0.0760406 5.19894
0.238239 4.19123 6.91867
0.670256 1.4046 5.59963
1.48429 -0.379983 4.90295
0.12988 1.86364 6.30198
0.0882283 0.615707 5.79619
-0.10335 0.377012 6.23543
0.837723 2.45706 5.93752
0.0788656 0.408487 5.74872
0.652142 0.815756 5.27169
-0.0558311 0.396927 6.13838
0.571401 3.80379 6.58984
0.175207 2.34612 6.39053
0.146414 3.32558 6.70737
1.83352 1.09212 5.5785
0.113336 0.797657 5.87322
0.535438 -0.126181 5.03916
1.47397 0.0525153 5.05258
-0.0220592 -0.122065 5.8226
0.308393 3.04127 6.41766
-0.01551 0.90751 6.27997
0.0989848 2.66339 6.54424
-0.115105 3.37694 7.28476
4.98396 4.45713 9.18496
1.47006 -1.6555 4.45127
1.82839 1.05389 5.56423
0.808493 0.0233767 4.9026
0.306291 0.0757548 5.18798
0.766356 0.458383 5.13064
0.212509 0.599881 5.60516
5.04749 4.42464 9.19537
0.180684 2.35945 6.35694
0.305178 0.630433 5.49069
5.06417 4.43085 9.17184
0.716485 0.725506 5.20851
0.636972 0.488006 5.25196
0.300121 0.532534 5.45555
0.449442 1.76665 5.89872
1.4943 1.97525 5.66864
0.587634 0.875711 5.36929
0.440174 1.77131 5.90521
0.0758288 2.48127 6.55385
0.378928 0.522231 5.39033
-0.401737 4.91622 8.17264
0.642114 0.920509 5.35398
-0.918232 5.12988 7.90531
4.80604 5.32277 6.65943
0.026173 0.865312 6.12218
-0.0796197 1.87553 6.95017
0.255703 0.534337 5.47856
0.957649 3.14646 6.11385
3.73012 4.88982 8.15247
0.967829 2.37173 5.84099
0.0590908 1.83611 6.35968
0.214423 0.909016 5.7231
0.736635 0.608827 5.16935
-0.0348272 2.91779 7.0147
0.252865 -0.590906 4.9705
4.67387 4.69945 8.40947
-0.119907 1.9403 7.06457
0.714792 0.420533 5.19187
0.223903 0.971474 5.72216
-0.120393 2.23674 7.27608
-0.000161104 3.5675 6.96032
0.209087 0.998101 5.75973
-0.607543 4.8368 8.61457
0.650122 0.6123 5.20611
0.39478 1.23239 5.69815
0.455275 -0.383887 4.95355
0.339617 1.94198 6.10611
0.0244882 -0.713486 5.22713
1.14835 4.08114 6.37143
-0.0747753 0.547219 6.36866
0.138331 1.16255 5.91612
0.129318 0.159321 5.47472
-0.00889774 -0.230209 5.66927
0.357756 1.96657 6.04228
-0.0513445 -0.730313 5.47507
0.76238 0.464193 5.11465
0.222923 3.28262 6.58133
0.95791 -0.217757 4.8207
0.239795 1.12057 5.7927
-1.29742 4.77441 9.16926
0.715904 0.552227 5.16031
0.167394 -0.100679 5.24037
0.725262 -0.151639 4.9315
-0.0422671 0.100403 5.955
1.40479 0.390585 5.14412
0.70215 4.03382 6.63018
0.100977 -0.321637 5.26496
0.433513 -0.344262 4.98223
0.250952 4.14369 6.89583
0.622652 -0.625003 4.80132
0.0496023 -0.574665 5.24646
-0.0324262 0.260628 5.99306
0.129346 1.72446 6.26422
0.125511 -0.558335 5.14353
0.228016 -0.486799 5.02384
0.253318 1.20819 5.82014
0.301358 0.0100732 5.17503
0.168757 2.33961 6.37596
0.123582 1.2349 5.99201
-0.0187114 2.87407 6.96142
0.183304 0.00648776 5.31206
0.0430372 0.00469729 5.57309
1.03327 3.3429 6.14587
0.00291091 1.7114 6.52782
-0.0863377 1.48472 6.72029
0.597003 1.37631 5.62395
0.826681 2.44802 5.91401
0.219222 -0.271665 5.12975
-0.292022 4.97128 7.95236
0.821341 -0.0678219 4.85571
0.262125 3.69996 6.70861
-0.914866 5.14176 7.92798
1.75709 0.997061 5.57132
0.13025 0.15 5.48656
-0.390443 4.23449 10.8209
0.412974 1.90146 5.96912
0.434482 1.87409 5.9479
0.338086 1.96276 6.10617
1.49666 1.97303 5.67832
-0.406316 4.48492 9.70207
0.097869 1.51197 6.21611
0.13055 1.49376 6.17014
0.156012 1.40946 6.10127
-0.522515 4.5036 9.51057
0.326794 -0.959556 4.74128
3.45685 5.14881 7.48888
4.817 5.33132 6.67195
0.577114 2.17178 5.96421
0.789399 0.0741998 4.98315
0.298764 2.21653 6.22179
0.479888 -0.784805 4.76079
0.559191 3.91592 6.64954
4.81936 4.8585 7.98018
0.328949 2.25151 6.19558
0.171226 -0.026812 5.27428
0.170352 -0.0458163 5.26747
0.670985 0.964751 5.30775
4.59093 4.73887 8.20479
0.263549 0.87984 5.60712
0.190212 2.36511 6.37719
5.07 4.43322 9.18213
0.678788 0.839334 5.25316
0.149502 0.766843 5.70615
0.103055 0.741807 5.83169
0.616813 -0.362636 4.89675
0.2786 -0.0815265 5.17531
0.490435 0.729207 5.3972
-0.0494633 0.276838 6.01423
1.25173 -0.224587 4.90672
0.708468 0.711387 5.1956
2.61393 5.32649 7.13971
1.54454 -0.162984 5.00562
-0.0866998 0.346527 6.16782
0.499014 0.589095 5.33747
3.73295 4.86209 8.08591
3.54108 5.50183 6.40876
0.0248261 -0.261631 5.48227
0.732892 0.560099 5.18154
-0.0684205 1.93189 6.96554
0.721879 0.59473 5.17345
0.101684 2.64905 6.51999
0.495614 -0.131158 5.03245
0.828817 0.793239 5.16014
-0.0835385 2.3497 7.10305
0.0457045 3.44771 6.87028
0.304163 1.10959 5.69185
0.513116 2.80544 6.21664
0.162542 -0.138814 5.2358
0.0628311 1.21564 6.19285
0.0795368 0.611379 5.86607
0.145352 1.19966 5.97358
0.0457276 0.0701938 5.62137
-0.0384526 0.285764 6.03096
-0.0528749 3.71973 7.11491
-0.424723 4.21991 10.7617
1.38459 -0.529398 4.81957
0.00823488 1.55337 6.46411
0.487008 0.055889 5.0873
0.0507374 -0.696799 5.14533
0.253731 0.529197 5.46958
0.0951617 -0.277787 5.30754
3.70701 4.86798 8.12169
0.0662388 1.23432 6.14682
0.168261 -0.0912816 5.25118
0.412663 0.476228 5.34203
1.19939 -1.28002 4.46545
-0.0148714 0.365648 6.03487
1.0181 3.47788 6.20591
3.7295 4.85239 8.08338
0.370732 -0.323874 4.99832
0.134795 3.24409 6.68061
-0.403125 4.21822 10.782
0.529948 -0.558775 4.83688
-0.298427 4.61704 8.90888
4.83522 4.8691 7.99758
0.607608 1.25637 5.56714
0.712273 0.630441 5.19321
0.748309 0.636558 5.17188
-1.93667 4.9132 9.05915
0.612705 -0.375593 4.88463
0.145819 2.81962 6.48392
0.23159 1.11298 5.76712
0.161664 1.10626 5.85541
0.0906809 2.63844 6.49907
-0.00145993 3.57058 6.9761
0.32089 -0.95688 4.72806
0.27824 1.0514 5.6919
4.74742 4.5086 9.00372
0.861631 -1.03955 4.57011
-0.0691225 -1.9239 4.74814
4.79917 4.42447 9.20499
2.59902 5.30932 7.11873
5.03983 4.41237 9.17193
0.353526 0.0720645 5.16105
-0.071408 0.900004 6.49135
0.0494799 -0.00254612 5.59497
0.818198 2.13236 5.82184
0.186562 0.0196448 5.28441
0.568805 2.16902 5.94657
1.75653 1.01344 5.55742
0.807099 0.0927297 4.94032
0.801606 0.0367127 4.95148
-0.0293217 0.794374 6.32069
3.53851 5.51477 6.42764
0.77191 0.0750388 4.95818
-0.0616771 1.28417 6.66454
0.945395 0.237579 4.92841
0.723236 1.26601 5.41441
0.80426 0.0235146 4.94415
0.539752 1.54912 5.7203
0.810494 -0.664352 4.71438
0.711852 1.24979 5.38475
0.12346 3.94248 6.94887
0.649743 0.925066 5.29047
1.4796 3.05007 6.01632
0.0094235 2.44044 6.74158
-0.057685 2.49019 6.85969
-0.0388994 0.942334 6.40981
-0.0665537 -0.431966 5.88753
-0.0755308 1.8729 6.96233
0.056339 3.26893 6.75036
0.0590338 0.89372 6.06892
0.0362302 2.90093 6.8892
0.654628 0.630453 5.20052
4.62754 4.52425 8.86151
0.0804111 1.63533 6.27577
0.79896 4.21004 6.633
0.909491 -0.0795786 4.82317
1.06792 3.92788 6.3561
0.141302 0.546777 5.685
0.0258061 1.91438 6.44159
-0.0295978 0.491417 6.13365
0.304975 0.527319 5.42479
0.117887 3.22581 6.64169
1.33993 4.11989 6.40181
0.210318 -0.00597022 5.26278
0.284111 -0.763445 4.87234
3.54069 5.53064 6.42077
0.0331607 0.820564 6.04011
0.0806273 1.5132 6.19111
-0.295633 4.58708 8.91345
0.0251225 0.867759 6.13602
0.851286 -0.186246 4.83505
0.000243275 1.99934 6.59281
0.133015 -2.26224 4.26303
0.780605 0.96865 5.2474
0.0309379 2.17005 6.54489
-0.101374 3.86823 7.27899
-0.0458515 -0.339507 5.90972
1.56477 3.01088 6.01317
0.264298 0.0302227 5.22104
0.0870438 1.57933 6.25158
0.269953 2.65232 6.32584
0.272622 -0.0934773 5.1692
0.267169 2.35285 6.25026
-0.708637 4.69125 8.9232
0.362194 -0.321639 4.99184
0.144984 1.02145 5.86595
0.787591 0.696306 5.13316
0.0719831 0.616381 5.85436
1.25586 -0.853721 4.66813
-0.00707119 0.410242 6.05581
0.886503 2.99555 6.10624
0.298759 -0.821428 4.80933
-0.016506 -1.5937 4.80709
1.65762 1.45728 5.61964
-0.0244722 0.795592 6.32924
0.0420901 -0.812582 5.10812
0.646598 0.84992 5.28656
0.817067 -0.666305 4.73253
0.673265 1.81308 5.76152
-0.0168662 0.227862 5.9504
0.697789 1.1204 5.3254
0.215432 -0.550041 5.02434
0.722368 0.831251 5.23084
0.344267 -1.84745 4.35771
0.217359 3.28504 6.5686
0.223567 -0.483676 5.01281
0.724271 3.94159 6.60991
0.929294 3.12566 6.1325
-0.027078 0.797765 6.27933
-0.0962854 3.87387 7.3056
-0.10119 -1.48052 5.16366
0.278325 -0.979371 4.77933
0.334095 -0.957678 4.75526
0.225694 -0.827522 4.86719
0.205017 -1.52439 4.5377
0.488092 -0.524186 4.87053
2.6366 5.38604 7.03932
3.95198 5.53945 6.3188
0.346376 -0.669974 4.89884
0.728796 0.66064 5.18728
1.33207 -0.349291 4.88329
0.206539 0.903856 5.70091
0.736851 -0.266944 4.84914
-0.144005 -3.03896 4.24267
-0.0181868 -0.243986 5.71484
-0.00950514 0.227897 5.97732
-0.28422 4.59697 8.93027
0.64667 0.482749 5.25551
0.950383 3.63069 6.28093
0.0835213 1.51397 6.2052
-0.00267409 3.57364 6.98568
0.155299 1.16416 5.95265
0.265578 1.06604 5.73559
0.556762 3.9037 6.64509
0.66141 0.96179 5.30717
0.648649 0.946394 5.30906
0.00431921 0.845033 6.16239
1.75088 1.03372 5.56276
0.212865 -1.48303 4.58579
0.245603 0.0109689 5.21674
0.484718 -1.56977 4.45676
1.01735 3.46254 6.17283
0.289552 -0.48038 5.00453
0.126259 -2.43853 4.16563
0.372318 -0.323871 5.01851
4.67716 4.37508 9.12951
1.47805 0.209811 5.09709
0.315618 2.24594 6.16548
0.824903 2.13504 5.85401
0.539066 -2.68998 3.92325
0.0342167 2.17134 6.56098
0.253571 -2.01545 4.28366
1.39126 -0.230224 4.92618
1.72364 0.993407 5.54448
0.0469428 -0.799671 5.16293
2.44982 5.43506 6.8926
0.0443592 0.82197 6.05908
0.037465 0.511255 5.9317
0.532778 -0.888811 4.71275
0.685983 0.974346 5.35748
0.792547 0.536492 5.05946
0.366696 -0.406921 5.00549
0.13919 1.01422 5.84133
-0.0796254 -1.91921 4.74218
0.585726 -0.327732 4.90244
3.17775 5.28835 7.19804
0.493436 -0.521706 4.88438
0.147201 0.154888 5.41717
0.287188 -1.06253 4.70408
0.275386 2.3551 6.27017
0.244035 -0.522118 5.02903
0.432839 1.90027 6.02191
0.0317952 1.94512 6.51908
-0.0415492 -1.59218 4.86316
-0.0295349 -1.59753 4.80333
0.742061 -2.01681 4.14155
0.31607 -1.82053 4.34837
0.662751 0.848615 5.32195
0.754219 -0.312821 4.82901
0.693864 1.21236 5.45779
1.66807 1.00996 5.56326
0.597287 3.97075 6.74405
0.474068 0.765448 5.45846
0.28574 0.887461 5.6512
0.272479 0.979674 5.72895
-0.0234168 0.120894 5.9963
0.861042 5.38129 6.9771
3.82961 4.83745 8.47497
-0.245098 4.73394 9.14571
0.162217 1.70692 6.29339
0.390805 1.99053 6.10907
4.923 4.49567 9.37919
1.52721 1.99093 5.71521
0.317757 1.12513 5.73238
0.798711 0.976186 5.27045
-0.583856 5.13811 8.18525
0.108229 1.65756 6.30617
0.945876 2.39453 5.91028
1.05102 3.51611 6.27683
0.710666 0.566634 5.19521
0.724408 -0.305765 4.85
0.828533 -0.0679812 4.87033
0.373522 0.209261 5.251
0.825785 2.29868 5.94125
0.529785 -0.126977 5.03021
1.89476 1.0733 5.60057
0.980604 -0.0524193 4.84844
0.501666 0.326942 5.2358
0.179795 -0.102731 5.25768
3.86129 4.94407 8.24257
-0.882021 5.22238 8.05102
0.385332 0.520851 5.3876
0.521216 0.58169 5.34604
-0.467511 4.61407 9.75501
0.500245 -0.129462 5.04134
0.486845 -0.783829 4.75814
0.531255 0.524944 5.31045
0.745524 0.959787 5.30792
0.716847 3.28724 6.38322
0.772408 0.257772 5.02896
0.176815 -0.0900893 5.2738
0.152971 3.47719 6.81704
0.366639 -0.313817 5.01375
0.265219 0.4694 5.46427
0.353437 0.0881756 5.18878
0.202794 2.28117 6.40953
1.2005 2.35913 5.83494
0.612788 2.18061 6.00149
0.0900137 4.76617 7.46982
0.479941 1.15366 5.63013
1.50292 1.99848 5.71309
3.55034 5.22778 7.6479
0.322706 2.23523 6.27078
3.36317 5.26296 7.60274
0.996984 2.39152 5.89456
4.06302 5.62692 6.49168
0.321801 0.535863 5.45397
3.86618 4.94668 8.25333
3.64166 5.62176 6.52136
0.219893 -0.191507 5.16679
0.427922 -0.965589 4.68867
0.473553 1.15415 5.64354
0.69668 0.382517 5.19523
-0.186376 4.73219 9.12634
0.113157 1.52073 6.24923
0.674704 1.24294 5.48623
0.186096 1.11624 5.90461
0.312977 0.626766 5.50964
0.28734 2.67845 6.40318
2.69708 5.40455 7.25238
4.05058 5.61634 6.47536
0.839616 2.14386 5.85722
3.65196 5.61206 6.54808
0.24846 -2.00845 4.27676
0.421943 -0.955517 4.70086
0.382384 -0.963847 4.70974
0.154923 -1.05286 4.8432
0.329096 -0.100431 5.13256
0.535413 -0.398737 4.91121
-0.238075 4.72714 9.12816
-0.971001 5.09674 8.37066
-0.455717 4.62152 9.76321
0.160943 1.02694 5.89828
0.990669 2.42144 5.90779
0.377515 -0.95633 4.70214
0.301045 -0.821939 4.81299
0.836269 -0.358571 4.78383
0.326288 -1.00098 4.71915
-1.93191 4.99303 9.19933
0.345521 -0.651444 4.87713
3.30546 5.4004 7.33823
0.981221 -0.885635 4.60337
0.328047 -0.366683 5.02242
0.122428 -1.84799 4.45395
0.667068 0.949914 5.33827
1.00076 -1.05372 4.53894
0.16497 1.87636 6.35748
0.5266 -2.07817 4.12923
0.517218 -0.881956 4.69032
0.852246 -0.146017 4.84746
0.976881 -0.823736 4.61368
0.316965 -1.81848 4.35003
1.54215 0.797374 5.46656
-0.950266 5.11839 8.37399
1.38938 -0.210581 4.91229
0.700041 1.66682 5.73375
-0.885906 5.24351 8.09107
0.837573 5.34843 6.93169
3.6937 4.73716 8.31549
3.70182 4.74661 8.30688
-0.239089 4.74144 9.1669
0.74842 0.623829 5.16216
0.367831 0.0756285 5.18562
0.810396 0.665703 5.11766
0.338796 0.489149 5.42237
1.00337 0.545223 5.02223
4.74549 4.3887 9.1281
0.423382 1.25364 5.71168
0.708036 3.28058 6.36698
0.725799 0.656924 5.18226
0.356152 0.0875885 5.19332
3.43512 5.13132 7.46199
1.0293 3.48902 6.22473
0.656756 0.862457 5.31935
3.42581 5.1274 7.4975
0.258142 -2.01577 4.29082
-0.964926 5.10906 8.3974
0.47246 -0.597864 4.84383
-0.449391 4.62635 9.7889
0.279401 -0.979053 4.78133
0.791059 -0.679252 4.69484
0.989191 -1.05111 4.52433
0.911941 -0.150909 4.80569
0.60421 -0.711412 4.73923
0.520613 -0.436358 4.9047
0.897813 -0.599357 4.70022
0.624385 -0.557226 4.80659
0.663097 -1.06132 4.57993
0.566197 -1.2877 4.50338
0.846261 -0.352975 4.77803
0.339897 0.684227 5.50769
0.678709 0.518976 5.19025
0.90535 2.34461 5.86946
0.26246 4.16178 6.92371
0.346077 4.34509 10.3078
0.167327 0.164639 5.42109
0.298994 1.05576 5.72676
0.981273 2.2821 5.80665
0.687847 1.11859 5.31557
0.0992467 1.53293 6.25443
0.0612434 2.20039 6.6109
0.117579 0.730501 5.84854
0.0182546 3.46687 7.18096
-0.24922 4.71957 9.12145
0.0367572 -0.0464822 5.76032
0.814018 5.30799 6.87755
-0.0819819 3.84136 7.33214
0.647193 0.979332 5.37631
0.348742 0.498872 5.42283
0.0344545 2.20088 6.66353
0.122916 1.35403 6.12669
0.0416602 0.855808 6.19494
0.445268 1.90517 5.97653
0.0242854 2.19165 6.63841
0.724072 0.555667 5.17672
0.191068 0.00829532 5.3314
0.236596 1.04885 5.78004
0.0357617 -0.0340699 5.77857
0.439389 1.67981 5.88198
0.240092 4.45328 10.0263
-0.037007 1.05651 6.67433
-0.0255068 2.13276 7.14688
0.189126 0.468224 5.57482
0.846768 2.2538 5.8543
1.02307 3.55081 6.21575
1.33941 4.00633 6.35991
0.601949 1.06021 5.45984
0.397855 1.7703 6.00216
0.364763 2.29475 6.20306
0.0661583 0.804845 6.08241
0.368974 1.44061 5.84238
0.492605 0.581702 5.37943
0.61218 3.77725 6.60134
0.226727 0.694862 5.63365
0.279583 1.09494 5.75661
0.190618 1.12613 5.90415
-0.471798 4.60809 9.7068
0.723546 2.16766 5.91352
0.744545 3.56544 6.42183
-0.0797348 2.26748 7.36899
0.667821 0.937549 5.32952
0.415691 2.19545 6.11232
1.22501 3.75171 6.23508
0.995131 3.52195 6.20585
0.601393 0.877286 5.38284
0.720002 2.17248 5.90454
0.691287 1.06792 5.30037
0.769378 2.24104 5.90563
0.83033 2.12628 5.83027
0.0207412 0.557314 6.17504
0.357478 2.30416 6.21299
0.102536 0.866464 5.94903
0.13007 0.753085 5.89343
0.153981 1.72778 6.28988
0.0249863 4.02455 7.16725
0.0762052 1.89784 6.50226
0.409695 1.25072 5.71806
-0.0579868 0.38918 6.23547
0.00041899 -0.126914 5.89693
0.110196 0.500703 5.75687
0.600508 1.28108 5.58219
0.700337 0.578505 5.18264
0.227174 0.883379 5.73804
-0.0209991 0.335558 6.16839
0.0504955 3.28405 6.91828
0.00593454 -0.248468 5.77118
0.617321 1.03867 5.43665
0.602984 1.03762 5.461
-0.026198 -0.734637 5.52358
-0.050102 2.163 7.26752
0.723267 1.24679 5.39951
0.0991083 2.49238 6.59212
0.0415052 -0.264302 5.52149
0.0848682 0.668915 6.01878
1.04799 3.90175 11.681
0.25092 1.05775 5.78261
-0.0726548 0.104045 6.17183
-0.016419 0.0998048 6.01681
0.153047 0.161455 5.4611
0.350971 3.86729 6.78423
-0.092654 1.49649 6.9231
0.110725 0.0714016 5.50751
3.17833 5.11205 7.37754
-0.0142492 -0.576679 5.81617
0.111847 0.0187456 5.49869
0.032071 1.57098 6.52508
-0.0770221 3.84453 7.35113
0.0477297 0.777914 6.10374
0.079494 1.63647 6.37152
0.705699 0.565855 5.18765
0.47291 0.767365 5.45438
0.256373 0.253282 5.3646
0.167912 -0.50976 5.12472
0.316899 0.635348 5.50721
0.420991 2.20013 6.12051
0.181724 1.25974 5.99329
0.123431 0.178698 5.57745
0.0772676 0.758137 6.04635
0.710935 3.2638 6.34397
0.762055 2.23808 5.8995
0.0350171 -0.213458 5.70147
0.212513 -0.526418 5.05465
0.350448 0.664617 5.48927
0.0824213 1.64006 6.33824
0.332152 3.06428 6.46774
0.000837305 0.855487 6.40447
0.0504355 0.712574 6.17762
0.533755 2.82953 6.26373
0.267403 0.536902 5.50019
0.106926 0.412841 5.73023
0.349929 2.2707 6.2111
0.279005 0.862795 5.64338
0.151414 3.275 6.71705
0.114065 0.410935 5.71234
0.626565 0.583481 5.20605
-0.34817 4.57894 9.91221
0.571156 3.93633 6.67931
-0.0498617 -0.280561 6.16629
0.121836 0.857392 5.92592
-0.063999 0.575821 6.45698
2.53321 5.2556 7.04294
0.272192 1.21599 5.85685
0.0511158 -0.263852 5.5338
0.046938 0.879926 6.18694
0.0940289 0.410478 5.77898
3.38036 5.09377 7.39155
-0.0576064 0.353771 6.23897
3.67393 4.80672 8.0034
-0.0101563 2.17092 6.70811
0.644794 0.937895 5.35012
0.0569809 2.19712 6.60159
0.00103627 1.74636 6.72808
0.267421 0.979687 5.71989
0.371828 0.514385 5.43514
0.252211 4.45679 9.96398
-0.0524741 1.26608 6.78721
0.12539 0.314001 5.597
-0.0447426 2.30228 7.2539
0.171888 0.771818 5.7721
0.462751 1.86505 5.96188
0.691235 0.627931 5.18299
0.00017461 0.957455 6.41682
0.304798 1.30308 5.85163
0.00438587 2.04674 6.86124
0.377709 1.30975 5.77252
-0.0912645 1.80364 7.07864
0.262434 4.45448 10.0109
0.0246116 -0.503798 5.45901
0.509856 0.593372 5.35647
0.449433 1.88651 5.9802
0.44715 1.89235 5.96426
1.18609 4.30532 6.45664
0.0286847 -0.214018 5.69035
-0.00942304 2.92286 7.06983
-0.0155907 -0.706549 5.44005
0.147586 1.24331 6.04118
-0.0412067 3.75686 7.21447
3.67441 4.8203 8.01416
-0.0343843 1.04221 6.62245
0.332102 0.499463 5.44914
0.430981 0.0486593 5.13802
-0.127924 1.85062 7.25521
0.598079 3.77134 6.58248
0.263181 0.0127948 5.24478
0.118932 0.315148 5.61499
-0.010263 0.256026 6.10907
-0.00466076 -0.123417 5.85898
0.15985 -0.0209908 5.36791
0.0711098 1.64118 6.3567
-0.109656 2.29708 7.39079
-0.0643074 2.38688 7.16436
2.58805 5.29367 7.10169
0.743699 0.454335 5.09651
1.32245 2.83819 5.93032
0.666095 4.24745 6.74554
0.102757 1.7633 6.36133
0.194401 2.35769 6.4314
0.154169 1.86271 6.35361
0.0938234 0.760037 5.95838
0.144377 3.53013 6.78982
0.0645467 0.230558 5.78804
0.0352341 2.03862 6.62793
-0.256069 5.03802 8.06452
0.00158672 0.478655 6.17594
0.147485 3.47293 6.80885
0.00515997 3.66458 7.24801
0.932907 3.13136 6.1262
0.14875 0.158387 5.44794
0.165875 1.1691 5.9492
0.344072 0.507345 5.3979
0.130426 0.398532 5.70361
-0.138285 -1.94709 4.99392
0.100113 2.49646 6.60308
0.00876936 2.89898 7.0293
0.28108 -0.0132496 5.23631
0.247784 4.43823 10.02
-0.0740451 1.81895 7.10249
0.0115361 0.99625 6.41139
-0.0696974 0.943154 6.80069
-0.0801841 2.27 7.38489
-0.0386845 0.895023 6.53571
-0.00457819 2.94757 7.09108
0.674956 0.838442 5.24734
0.0742763 0.666959 5.9925
-0.347717 4.59224 9.93624
0.0267145 -0.503161 5.47213
0.158224 1.21369 6.00697
0.0868809 -0.683635 5.16895
1.00063 3.55934 6.22337
0.0553372 3.28695 6.92783
-0.0480384 0.551687 6.43099
0.0980983 1.36546 6.18409
1.21466 1.24349 5.39229
0.239338 0.973647 5.74956
0.187852 1.72352 6.20335
0.00303707 -0.0807532 5.86559
0.252373 0.989744 5.75786
0.557963 -0.124047 5.03976
0.0474533 -0.718536 5.27053
-0.0896939 1.39413 6.98675
0.0685895 0.292405 5.86101
0.26542 0.250712 5.37483
0.110357 0.381834 5.70418
0.150143 0.639952 5.74436
-0.0106808 0.0381836 6.02025
0.501625 0.732436 5.41657
-0.00437809 1.71294 6.70909
0.709846 0.605398 5.17256
0.642411 1.0157 5.37908
0.0705743 0.540742 5.96783
0.077317 1.99173 6.51674
0.742091 0.633793 5.16375
0.071234 0.788953 6.08667
0.105687 -0.279504 5.32684
0.10131 0.812783 5.94889
0.0532648 -0.253998 5.51044
0.336133 2.2966 6.24153
-0.0277139 0.203973 6.06045
0.27146 2.03461 6.23367
0.103774 0.261489 5.63477
0.588109 1.11304 5.50653
0.437567 2.26113 6.08117
0.674928 4.25419 6.75913
-1.26714 4.85554 9.33427
0.156715 1.70542 6.28567
0.161045 1.17104 5.95931
1.02612 3.56931 6.2292
-0.046223 0.390393 6.24112
0.122336 0.352899 5.67632
0.046185 -0.795708 5.19031
0.193089 -0.027672 5.31367
0.0371125 -0.438952 5.46349
0.593256 1.28782 5.58957
0.26765 1.07637 5.78166
-0.0285743 -0.351143 5.99318
2.38905 5.28941 6.99361
-0.360724 4.33304 11.0482
-0.0656802 2.39436 7.18579
0.0425861 -0.188242 5.62853
-0.0352902 -1.76756 4.78448
0.336435 2.36832 6.2142
0.00954548 2.36264 7.00505
-0.0437809 -0.165303 6.06949
-0.0398418 1.94963 7.03667
0.224662 -0.00255914 5.28966
-0.0505724 1.8885 7.02523
0.0332841 -0.71689 5.25126
-0.361719 4.56987 9.89026
0.258968 -0.688992 4.92786
0.202584 1.0679 5.83659
-0.0121984 0.849262 6.44183
-0.039093 0.771305 6.49671
0.0311938 0.7654 6.18844
-0.0277482 -1.24125 5.20975
0.154479 0.734153 5.76771
0.688391 0.567335 5.1683
0.100484 0.66602 5.85908
0.390854 -0.964625 4.72318
0.337826 -0.960264 4.75507
0.312327 0.625163 5.50808
0.153643 0.553288 5.68851
0.111111 2.65659 6.54462
0.284036 -0.90717 4.83299
-0.0528054 3.2148 7.29582
0.0534177 1.25425 6.33449
0.597451 -0.546923 4.80399
0.779739 -0.209168 4.84707
0.925307 3.12188 6.11792
0.574732 0.963703 5.44163
0.00720362 -0.0816551 5.87749
0.144923 0.182807 5.4981
-0.0546553 1.49458 6.78941
0.0425295 -0.0506062 5.65311
-0.0595924 2.1146 7.41829
0.0552218 -0.799498 5.20002
0.00376535 2.95583 7.11704
0.126716 0.343236 5.66637
-0.00760661 -0.71374 5.46142
0.245676 -0.516871 5.04241
0.718927 0.397325 5.15235
-0.0304018 0.39143 6.19071
