4.49482 1.20449 10.6269
4.66765 1.21208 10.7442
1.63728 0.05521 7.61586
1.82862 0.395247 7.46154
-4.36393 1.19652 10.4363
1.76178 0.373918 7.38113
1.42102 -2.13608 9.0996
2.47586 4.2719 8.3176
1.92522 0.369741 7.50494
4.53675 1.25975 10.6959
1.24289 -1.85771 8.90204
-1.85141 -0.860802 8.22406
2.22962 -2.15405 9.14217
0.62591 -1.70376 8.80654
0.276355 4.19844 8.2947
3.69498 1.32467 10.5114
-0.607584 1.27929 10.0539
1.83901 0.0474375 7.53732
1.77477 0.0487945 7.4689
-0.650081 1.32391 10.3231
1.81235 0.35639 7.43442
0.183567 4.15874 8.3098
-0.28257 -0.83941 8.2034
0.553523 -0.833028 8.14831
4.76309 1.37812 10.623
1.56892 2.46266 9.51193
1.34265 4.18302 8.39916
1.39049 0.0510501 7.52698
1.69949 0.357421 7.43236
0.200201 -1.11817 8.40938
1.77947 0.352417 7.48822
4.25075 1.40673 10.6269
2.03621 0.134136 7.45948
1.66788 -4.03067 10.5941
-1.72612 -0.834128 8.21454
1.73779 0.275454 7.43293
1.58739 4.14833 8.45405
1.56055 4.18896 8.53961
4.04551 1.42573 10.5513
0.0375487 2.43663 9.5038
2.20044 4.09681 8.38592
0.261806 1.37824 10.165
-0.158698 -0.832501 8.23253
-2.32671 1.40429 10.2653
-1.43209 1.39388 10.1953
2.18951 0.0093873 7.50002
-0.418694 1.41166 10.1023
-1.89502 -1.14459 8.46363
0.734569 -1.15177 8.43046
2.34566 -2.22802 9.18932
-1.07666 -1.16162 8.50413
0.393331 -3.8758 10.4325
1.88594 0.312049 7.46291
2.59916 3.98344 8.50601
0.516565 1.4753 10.0841
0.463239 -0.778791 8.17002
1.41324 -3.82056 10.3236
-0.340012 1.48541 10.0627
2.31829 -0.0103311 7.5475
1.83512 3.92688 8.46183
-1.87225 -1.16619 8.45607
2.40343 -1.68886 8.81844
0.747789 -0.76863 8.13148
1.5515 3.98203 8.60544
1.54764 -3.80011 10.3417
1.59931 3.92603 8.56411
0.5157 -0.768686 8.20576
0.492541 2.84236 9.27525
-2.4756 -1.79644 8.97552
-0.84488 1.55639 10.1376
-1.65248 -3.75305 10.3008
1.72479 3.93932 8.65232
1.02606 3.90623 8.5762
1.6207 3.90708 8.61828
3.16566 2.07035 9.92157
-0.0687514 3.84911 8.52532
1.83403 0.150291 7.48195
2.35491 -0.0158331 7.5989
2.17504 -2.2653 9.15828
0.944115 3.88159 8.61797
6.34948 -5.52266 15.1369
1.08138 -2.67085 9.52945
1.78091 -2.29245 9.27694
1.83014 0.274861 7.50336
3.29824 1.62299 10.4079
-0.801072 1.58114 10.0637
2.48933 -0.73725 8.0786
1.63345 3.81223 8.62863
2.16268 3.81107 8.64703
1.69257 3.8232 8.70689
-0.303669 1.59498 10.0738
-1.27669 -0.385423 7.93075
1.77733 -0.0205475 7.5583
1.94221 -2.30228 9.26226
2.15149 0.26272 7.43808
0.925303 3.761 8.73848
1.87912 0.259644 7.36823
-1.78112 -3.68466 10.3635
2.07135 0.252722 7.42092
1.06919 3.74013 8.73602
-1.03991 -0.728224 8.12773
2.23784 -0.0256433 7.53137
1.54002 -3.63688 10.2134
0.966953 3.71758 8.72177
1.65503 3.6814 8.68304
1.22404 -1.80892 8.85907
-2.26408 1.67441 10.1606
-2.25027 -1.21164 8.55323
0.747638 3.66841 8.73252
1.76051 -2.35185 9.35706
1.88719 -0.036126 7.53735
-1.1452 -1.21013 8.44936
-2.83213 -3.98965 11.3511
1.89731 0.177975 7.43561
2.53504 -0.72015 8.09472
1.23262 3.5761 8.72722
3.01352 1.72952 10.1685
-2.82413 1.70312 9.95754
0.348765 1.72578 10.0644
1.92466 0.180968 7.43004
3.37865 1.74188 10.1368
2.4003 3.27045 8.98805
0.658174 1.88946 9.93868
2.3957 3.29975 8.93722
1.91389 0.216159 7.46269
0.990672 -3.55089 10.1839
1.89946 3.4664 8.69326
-0.693262 1.72243 9.98411
-0.257848 -1.79388 8.93124
5.1017 -5.22452 14.899
4.72027 0.313978 11.3105
2.19399 0.212343 7.57695
2.19144 -2.38614 9.27032
1.4551 -2.38806 9.29547
1.36614 -3.52288 10.1673
-2.15224 3.45186 8.76297
0.964046 -0.680841 8.05572
1.94632 3.42544 8.70773
1.66461 3.47948 8.90419
0.62364 3.42433 8.84199
4.61148 -5.1699 14.857
-1.18327 -1.22541 8.4186
1.0163 -0.66848 8.06117
-1.81583 3.37989 8.74346
0.859909 -3.56058 10.1722
1.59601 0.197415 7.51724
-3.4441 1.78111 9.9973
-0.00299707 -0.658755 8.05034
1.05832 -0.655494 8.06502
0.221984 -0.652027 8.08875
-0.864067 3.36237 8.83901
-1.65101 3.37281 8.86673
1.38509 -0.0667014 7.65049
-0.892932 3.36816 8.90848
0.596815 3.34737 8.92995
0.90879 3.90435 8.69682
1.34957 3.29842 8.83092
0.251192 -3.43572 10.0916
-1.77653 -1.25985 8.50931
1.81122 3.28257 8.84495
3.65375 1.87344 10.0114
2.19914 -0.0987526 7.62772
2.40843 3.31591 9.01725
-0.463008 -0.6336 8.08259
1.00164 3.28578 9.00896
2.49206 1.88365 9.99674
-0.0230203 -0.628339 8.06822
0.097993 -0.624998 8.01004
0.225939 -1.28953 8.55072
2.58359 -0.624865 7.9921
0.516977 -0.618628 8.06508
2.50156 -0.104208 7.66337
0.0151455 1.8851 9.83846
2.37531 -0.103267 7.60287
1.69278 0.283118 7.44291
1.55368 -0.104499 7.62481
0.665213 1.91436 9.84675
2.3577 -0.116137 7.66938
4.40596 1.96043 10.1025
-0.591056 3.10326 8.95095
-3.74409 1.91327 9.82444
1.85753 -2.52849 9.42704
-0.175302 -0.605069 7.98901
1.93668 -0.114398 7.61645
-1.94608 3.08936 8.98737
-1.67561 1.9179 9.79715
-0.999625 1.94224 9.88104
0.833598 1.92329 9.78339
0.0447575 -1.60236 8.73574
-1.11126 1.96529 9.87125
-2.29082 -1.31322 8.58416
0.118801 -0.587519 8.04468
-1.42539 -3.36968 10.169
2.13511 -0.124598 7.60445
-1.95434 2.99829 8.92139
-0.0543668 -0.568424 8.03902
1.57693 3.03175 9.03496
0.85347 1.97699 9.71972
-1.28673 3.06649 9.14851
1.16603 1.98142 9.76113
1.63279 3.01921 9.02515
1.10815 -0.567239 8.00106
2.0558 3.02943 9.12204
2.37983 -0.146455 7.64896
-1.44368 -0.555143 8.08389
2.31234 -0.143041 7.64718
-1.23401 1.99194 9.75413
1.74634 -0.143201 7.66451
1.64299 -4.13062 10.5943
1.85593 0.572016 7.64114
1.79807 -0.936215 8.26827
-1.10271 2.96857 9.06215
2.22478 -2.58306 9.45764
2.3399 2.05412 9.84421
-0.539913 -0.506768 8.00438
4.08721 2.06981 9.92408
1.59367 2.92193 9.18909
1.93074 2.06385 9.8694
1.9919 2.0692 9.85317
2.49679 -0.162237 7.62132
2.03158 -0.162571 7.64558
0.454917 2.89856 9.22341
4.10966 2.09951 9.94757
1.33504 -0.488021 7.90876
2.40985 -0.172239 7.62084
1.52339 -0.170897 7.70723
0.269892 -0.343437 8.0202
0.512271 2.85772 9.1987
-1.443 -3.23292 10.0118
-0.143318 2.21437 9.57503
3.01261 2.1245 9.87538
1.07986 -3.2046 9.93582
0.129683 -1.36202 8.55622
1.79191 0.626244 7.61817
-1.00289 -0.478752 7.91255
2.03058 2.82792 9.21103
2.62376 -0.476192 7.87513
2.47454 -0.185154 7.615
2.66535 -2.67412 9.56768
2.70397 2.86158 9.39296
1.38551 -0.183397 7.70244
-0.911617 -1.37961 8.56375
-0.560537 2.76183 9.20649
2.36122 -0.193886 7.68002
-0.818477 -0.460622 7.96865
-0.113815 -0.458518 7.94654
-1.1285 2.6758 9.36956
-1.29759 -3.16774 9.96837
2.841 2.19055 9.84957
-2.87111 2.12592 9.77289
1.05579 -2.67803 9.51561
4.56587 2.2201 9.97628
1.64241 -0.434437 7.80873
2.60807 -0.216259 7.72035
2.51298 -0.216309 7.72776
0.108844 -3.13665 9.93608
2.8169 2.7719 9.48769
-1.86416 2.68938 9.25527
-2.83146 2.1813 9.68176
-0.333629 -3.12306 9.91465
3.23695 2.71574 9.35093
0.533124 2.71439 9.34931
0.0705468 2.6901 9.26216
-0.423662 -0.416872 7.92292
0.0460383 2.67184 9.25577
1.3589 2.68409 9.32507
1.98884 -2.72756 9.58733
2.27555 2.21313 9.78826
1.45067 -0.231014 7.73419
3.92112 2.71443 9.62094
0.979275 -2.73849 9.59325
0.524862 2.21723 9.58691
1.63217 2.64397 9.40084
1.9719 -2.74487 9.5646
0.447217 -2.77246 9.66842
2.80888 -0.397022 7.91702
3.93533 2.68177 9.59738
3.99647 2.28333 9.83074
0.593936 2.6142 9.36587
0.10735 2.61892 9.39104
2.18941 -0.24378 7.7226
4.10052 2.65939 9.55659
2.70752 -3.05442 9.84371
0.390053 2.58952 9.3241
0.353564 -0.395316 8.06648
-0.312286 -2.76502 9.58906
-0.243883 -3.04109 9.86115
2.01495 -1.5189 8.60515
-1.50784 -1.44092 8.63723
-1.25163 3.01045 9.0578
3.54479 2.3468 9.92587
4.08337 2.62839 9.62974
2.50576 -0.353404 7.76303
1.45431 2.55223 9.40152
1.06955 -0.253872 7.80229
0.977541 2.30634 9.62581
2.7517 -3.01843 9.8631
-0.482292 -0.347124 7.89139
2.71248 -0.260735 7.73574
2.60793 -0.26037 7.7441
2.50045 -1.51183 8.65565
3.99533 2.3356 9.68046
2.46918 -0.341889 7.76981
3.64571 2.39624 9.76092
2.67243 -0.332409 7.76156
2.70774 2.52906 9.56545
0.527101 2.49041 9.44532
4.57489 2.4286 9.86491
0.208763 -0.335401 8.02399
1.19816 -0.323064 7.80485
1.27793 2.47181 9.42149
0.805223 2.48763 9.46961
-2.8188 2.35833 9.51498
0.770575 2.44365 9.34781
1.09327 -0.283659 7.828
0.945887 -2.82968 9.61872
0.31913 1.65558 9.95004
2.26489 -0.317543 7.81178
-2.82864 2.44532 9.46957
3.63038 2.49152 9.6588
1.28516 2.4287 9.46318
0.614973 2.43378 9.49959
1.31125 -0.294654 7.83124
2.68027 -0.303685 7.78345
1.16423 2.43672 9.55607
-5.02898 -2.22063 12.8627
1.06226 -0.291795 7.81662
-0.356237 4.61204 8.12706
-0.707489 -1.75327 8.88832
-0.870457 -0.643937 8.07253
0.617354 1.83344 9.86998
1.29557 3.32717 8.83868
0.480435 -0.964215 8.29423
-0.678455 -0.503227 7.97278
-3.76504 -0.334268 11.4713
0.67232 1.68197 9.93435
4.10073 2.14736 9.98563
4.18249 2.14482 9.96849
-0.201528 -1.03949 8.3149
-4.5269 0.429942 10.9573
0.0488334 -3.83846 10.4434
-0.0990346 -4.46701 10.9394
0.739668 -4.48508 10.9828
0.563724 -1.13698 8.42028
1.23286 4.06721 8.44304
0.187247 4.08001 8.45025
-1.85948 2.73518 9.29044
-1.11039 -0.825396 8.1991
-0.473566 -1.12754 8.48126
-0.403079 -1.06614 8.35127
1.54627 2.21643 9.58966
-0.843966 3.49087 8.63176
1.05353 4.77456 8.07775
-3.70091 0.97958 10.5852
-2.5896 2.66504 9.43039
-1.57944 1.66095 9.9089
-1.19115 2.6582 9.31819
1.81333 4.48527 8.14041
2.45255 3.23902 8.97398
2.06437 3.49002 8.78459
0.851234 2.19176 9.70822
-0.540601 4.15124 8.30328
-0.88629 -0.578621 8.0327
1.42771 4.17278 8.39974
0.980403 -3.48005 10.0718
1.80326 3.86814 8.6058
-1.1554 -3.9914 10.5422
3.24901 2.63746 9.38783
1.55 -3.86192 10.4395
2.33079 4.05792 8.5458
-1.37058 -0.978624 8.27116
-0.156975 -0.666074 8.11071
0.58111 2.92292 9.19767
-2.37366 -2.09886 9.10815
-1.10489 -0.453948 7.92019
0.000400616 -1.71614 8.84849
3.89895 2.64836 9.48842
2.03053 0.28518 7.44084
3.62213 3.21544 9.06649
0.112251 2.6166 9.38817
1.89173 0.317159 7.47298
-1.13738 2.59528 9.2215
-1.76609 -1.25745 8.48295
2.11148 0.272437 7.44895
1.82647 0.272995 7.43705
4.33144 2.64932 9.64079
-1.20677 -4.77999 11.0717
0.230945 -1.29729 8.55746
-2.75143 2.54959 9.32858
-1.20021 2.68053 9.38067
4.10778 2.64115 9.66768
1.77661 0.347938 7.42111
1.82094 0.350858 7.41585
1.93305 0.350587 7.41523
-2.32704 -4.57194 11.0107
1.89137 0.263258 7.42521
1.64539 -4.54841 10.9382
1.9257 0.368318 7.5121
0.579494 -0.867582 8.19324
1.47347 2.58019 9.50117
0.661911 2.66252 9.28514
1.76921 0.371941 7.43591
1.02027 -4.35023 10.6855
0.21698 -1.3308 8.52389
1.92548 4.03666 8.48931
-1.02665 4.77504 7.81366
-2.48871 -4.26699 10.8371
-0.684539 -4.13489 10.5621
1.36842 2.70325 9.3852
1.76573 0.419727 7.46661
3.46441 2.57152 9.68126
-0.367981 2.6728 9.24479
-1.06792 -1.15483 8.44422
-0.107468 -1.16531 8.52121
0.0525725 2.66269 9.21871
3.72766 3.57587 8.8649
0.95186 2.67223 9.23095
1.28703 2.46582 9.41911
1.93115 0.183412 7.44852
-1.94779 -1.09681 8.32289
1.55351 0.18397 7.52975
2.78475 3.56476 8.91155
-0.235113 -1.10344 8.44044
-2.79052 2.48233 9.50757
1.81524 0.483036 7.44184
4.46442 0.718697 10.9354
-1.51327 -1.44169 8.65626
0.361797 -3.94195 10.5535
0.547093 4.81988 7.99389
0.535364 2.70739 9.31505
1.78453 -0.931971 8.18857
0.388526 -3.86746 10.4356
1.36984 0.161852 7.6465
-0.851763 2.42858 9.48505
-0.19385 -1.08593 8.33634
2.277 -3.84204 10.4033
-2.74685 2.41657 9.46019
1.93371 4.00079 8.47059
-0.104917 -1.07337 8.35475
1.68568 0.527113 7.50893
1.08307 2.71236 9.27014
1.3941 -3.7779 10.3313
0.621591 3.40461 8.79026
1.90204 0.149896 7.42331
1.45119 4.85205 8.09647
-2.02886 -1.07764 8.44749
1.82759 0.149958 7.44016
1.35945 4.78931 7.99741
1.64584 2.38007 9.57728
-0.19138 4.77697 7.98878
1.54686 4.15176 8.46629
1.58627 4.15291 8.47309
-0.931999 2.06656 9.88704
3.58389 2.39977 9.64618
3.21953 2.77678 9.45131
1.1012 2.36938 9.53293
1.77542 -2.42949 9.39468
4.00799 2.40091 9.70974
0.0519746 2.71404 9.15569
0.858472 2.75725 9.28194
1.04468 2.76285 9.31053
-1.78181 -3.69962 10.3829
1.35855 4.79152 8.05969
3.63781 2.39564 9.74818
2.06357 3.54458 8.73494
0.121664 -1.03596 8.32477
-0.311882 4.10635 8.35949
2.01905 -1.53146 8.63427
0.229225 -1.72772 8.90107
2.07449 0.11492 7.47642
-0.156992 -1.03088 8.39474
4.03985 2.36045 9.78427
4.64392 -5.23418 14.8194
0.747771 -1.02901 8.39037
0.986876 -3.55981 10.2065
2.09227 -1.57502 8.71848
1.67973 4.68691 7.96372
3.512 2.35689 9.85342
1.37808 -3.55077 10.2213
4.80804 -5.30282 14.9671
4.78792 -5.29761 15.1246
3.52763 2.32213 9.81128
4.61333 -5.1804 14.8656
-1.41124 -3.32419 9.8887
-0.828745 -3.48713 10.1117
-2.8773 2.26405 9.65699
4.33456 0.956029 10.7004
1.59846 4.71883 8.03651
-0.499659 2.76384 9.0811
1.66929 2.26511 9.70725
-2.51134 0.985321 10.5836
2.68508 2.81868 9.20488
1.66943 4.21407 8.43892
1.38782 3.7356 8.66954
1.68471 0.730283 7.75797
0.208895 -0.977149 8.2721
3.92147 1.01783 10.6909
0.170715 -1.63652 8.71393
2.05845 2.87369 9.34635
2.58942 -0.390406 7.81812
0.799233 -3.38872 10.0213
3.9653 2.24758 9.82103
1.72186 2.20984 9.67593
2.78604 -0.392073 7.86805
1.83885 -0.962104 8.15228
-0.774176 3.72511 8.58266
1.45815 0.0944679 7.62156
-0.425914 -0.417325 7.91455
-1.24626 -0.384685 7.94614
1.82754 0.746621 7.76102
0.716598 -0.96966 8.32741
-1.40816 -3.34474 10.0848
-0.850013 2.15418 9.62486
-2.86927 2.16087 9.6757
-1.17583 3.9531 8.47003
-0.615401 -0.43012 7.87424
-0.876553 3.33916 8.83291
1.73637 0.753789 7.77987
2.84591 2.19941 9.88611
2.72012 -0.361438 7.8154
0.0257458 -1.67603 8.78371
2.46752 -0.335918 7.76937
2.20748 2.13723 9.73226
0.731303 3.72923 8.67212
-0.80804 -0.452283 7.90043
3.63849 2.16041 9.90805
3.88141 1.05544 10.5853
-0.113671 -0.463586 7.92717
4.54127 1.07266 10.805
2.98419 2.1091 9.79497
1.19962 -0.326001 7.80047
-0.832633 -0.468873 7.89596
0.998914 -3.19684 9.89475
-0.0416736 -1.71177 8.88332
-0.53145 4.57363 8.01466
2.63827 -0.47968 7.92438
1.87787 2.07836 9.78457
1.50289 4.62648 8.10821
0.181827 4.16992 8.32905
1.90669 2.05548 9.78923
2.67863 -0.328916 7.76921
-3.11463 2.05175 9.79773
1.32905 -0.483606 7.86207
2.33832 2.07227 9.90023
2.05538 -1.72124 8.84172
1.21349 2.03327 9.72108
1.01925 2.05267 9.85918
1.30977 -0.302303 7.82048
0.429575 1.02542 10.0544
1.0699 3.74824 8.74655
-1.51762 -0.948686 8.24721
-0.624954 -0.50968 8.00342
2.33553 0.068686 7.51327
1.68211 3.77436 8.61977
1.87245 0.0701902 7.5269
0.602835 -0.958094 8.33014
-0.174755 -3.03329 9.77719
0.0781392 -3.04818 9.81369
1.46701 3.32304 8.81114
1.36794 -1.74 8.82685
4.10088 2.02618 9.96132
1.29062 3.31547 8.8
1.0641 -0.285663 7.8532
1.33913 -1.74949 8.81289
3.68744 2.00335 9.99247
4.47209 2.0174 10.1428
-0.434483 -1.77151 8.90002
2.03735 4.5796 8.17955
1.25026 -0.274141 7.74744
2.73682 -2.99637 9.79389
-1.43347 -0.55976 8.05389
1.78905 0.045564 7.51415
1.34322 -0.265883 7.68541
1.1078 -0.569438 7.98679
0.889405 3.70306 8.67908
2.67407 -0.26355 7.72108
-0.0543695 -0.571362 8.0529
0.838741 1.92099 9.83349
1.238 3.60137 8.79948
5.15599 -0.404221 11.6812
-0.0900934 -0.574757 7.94392
-3.73097 1.89868 9.77604
1.68029 4.21871 8.36432
0.968072 3.73808 8.7828
-0.257213 -1.79185 8.89234
2.63473 -2.91323 9.75328
-0.719154 -1.79805 8.92761
0.117387 -0.591994 8.05112
0.813653 3.31825 8.83898
1.20178 -2.8347 9.6007
1.63579 0.0496736 7.58802
-0.17582 -0.605315 8.00768
2.17302 -0.242967 7.61712
2.71508 -0.24231 7.73823
1.58869 0.874531 7.97137
-2.5172 1.84923 9.73479
-0.205714 -1.83111 9.00879
4.55835 1.16372 10.5824
-3.54154 1.16275 10.4413
1.30386 -0.230186 7.78749
1.64712 3.01954 9.04785
0.182212 -0.918724 8.20854
-1.55078 1.83193 9.7974
1.45355 -0.230869 7.71215
0.992992 -0.621566 8.03456
-0.872318 -2.76684 9.58371
4.60566 1.18456 10.5771
2.54309 -0.233252 7.68506
-1.79647 -1.84998 9.01946
-1.95449 3.03079 8.98718
2.57857 -0.630965 7.99769
0.931327 -2.73544 9.52468
1.98568 -2.77024 9.63677
1.02842 -0.628478 8.01926
2.51129 -0.220019 7.69326
-0.455894 -0.63018 8.03163
-3.86671 -0.32189 11.7038
2.46424 4.44648 8.1154
1.67363 3.83428 8.57817
0.28539 4.2529 8.38933
1.29343 -0.193632 7.72917
1.53047 3.84541 8.58336
2.36771 -0.19524 7.71742
1.87303 0.025581 7.57223
1.23651 -1.85193 8.84608
1.34359 3.30827 8.87493
4.53944 1.25325 10.6897
1.81938 0.0208683 7.50064
1.90503 -2.63219 9.46247
2.41098 -0.19733 7.63827
2.65943 -2.65542 9.52986
-0.108991 -1.8873 8.95929
1.01652 -0.664596 8.02019
-1.50749 -0.673367 8.05394
1.4526 3.86143 8.57971
2.47351 -0.183079 7.71837
0.961935 -0.684093 8.07417
2.17758 0.0151738 7.55342
-3.42675 1.77163 9.96955
1.66219 -2.55299 9.3943
-2.89672 1.77711 10.0756
2.41465 -0.168579 7.64556
3.05114 1.75667 10.1074
2.01791 -0.159979 7.59823
2.16288 -1.93884 8.99698
4.00279 1.26781 10.4841
0.116614 -0.698811 8.08259
0.938648 3.84858 8.54268
-1.3928 -0.707579 8.1693
2.13477 -1.95846 8.99918
1.49254 -2.43733 9.25061
2.919 1.72628 10.0732
2.40964 3.33346 9.0267
2.31952 -0.00978575 7.53315
1.92767 3.28825 8.89359
-0.416204 -1.99424 9.10708
0.670931 1.69487 9.99051
1.40853 3.27351 8.86516
2.91869 -2.45894 9.38823
1.4784 -0.144157 7.60245
2.26563 -2.43441 9.35252
0.0827669 -0.872875 8.2369
2.38734 -0.149633 7.67132
-1.04176 -0.727879 8.13705
0.235045 1.68095 10.1705
2.30829 -0.140125 7.60783
-2.28752 1.68449 10.2315
2.04805 -0.00712251 7.54031
3.67786 1.30871 10.4273
-2.18312 1.64279 10.1035
0.794212 -0.746025 8.10482
-0.296319 3.6729 8.72484
1.75968 -2.3436 9.30774
1.62945 3.90359 8.6212
-0.447766 -1.98848 8.92973
0.515323 -0.769185 8.17501
0.604456 -0.869208 8.1977
-0.821289 1.53842 9.99913
1.94053 -2.29279 9.23731
2.34907 -0.112545 7.69568
2.32923 -2.27028 9.21425
0.742874 -0.766021 8.07825
0.458684 -0.785292 8.24892
1.58796 -2.04637 9.0814
2.37913 -0.109193 7.60741
-0.410026 1.50717 10.0383
1.7247 3.92543 8.63737
-0.339143 1.51293 10.1986
-1.9565 -2.27102 9.32174
1.77355 -0.0216122 7.54223
2.33023 -2.21125 9.10834
2.23459 -0.0286914 7.51426
-0.372698 4.27627 8.29727
2.20057 -0.0998144 7.62891
2.48532 -0.102938 7.61773
-1.84946 -0.860404 8.22029
2.02188 -0.0345045 7.53209
0.520892 1.45598 10.0281
1.51664 -0.0885461 7.56812
1.96952 3.21112 9.01842
-0.168589 1.46392 10.1935
-0.56271 -0.816529 8.17137
-0.153644 -0.826822 8.13845
-0.291483 -0.833494 8.21168
-1.41648 1.38672 10.1211
1.9643 -2.17754 9.2198
-1.11606 -0.834118 8.23663
-2.32725 1.40728 10.2677
3.02711 3.65255 8.79157
4.07654 1.4318 10.6312
1.60168 3.90832 8.54584
0.995098 3.24682 8.89209
1.85175 4.30055 8.28788
0.556005 -0.842818 8.2077
-0.213077 1.35781 10.0916
1.90289 -0.0388638 7.59438
-2.29362 1.37222 10.255
2.51463 1.90343 10.1142
-0.0807468 -1.3164 8.60943
3.58178 3.24735 9.00179
-1.71572 -0.830667 8.17671
1.39944 4.70643 8.08612
-2.35287 -4.43984 10.8989
-0.710287 2.71922 9.31196
1.46906 3.35112 8.74788
1.05674 4.76966 8.08355
1.43139 4.16722 8.39572
0.134595 -2.77069 9.59465
1.5614 4.71576 8.03763
1.42911 -0.383776 7.76417
-3.9701 -4.4923 13.164
3.38566 1.74481 10.1793
-3.2997 1.95625 10.0451
0.493193 -0.694908 8.03342
-1.95752 -1.20793 8.47295
-3.87181 -0.260884 11.5102
-3.09345 1.83246 10.0219
4.14001 3.13628 9.22976
-0.130472 -0.94069 8.26129
-3.16395 1.32492 10.1453
-0.791068 -2.49277 9.44973
0.0538277 -3.84177 10.4483
1.81674 0.481316 7.46217
-5.18098 -4.13043 12.5148
1.36997 -3.49825 10.2517
-0.835453 -0.469946 7.95824
-1.24953 -0.382206 7.92291
-0.485368 -0.3533 7.89981
2.70077 -0.331262 7.84071
-0.040195 -0.57946 8.03492
0.120752 -0.595514 8.04738
1.05281 -0.601686 8.00076
1.02437 -4.38551 10.7443
3.32769 3.33239 8.80022
-0.875007 3.32854 8.78097
1.35356 -0.261503 7.74225
2.67618 -0.257609 7.69577
2.58531 -0.24611 7.7177
0.971882 -0.68201 8.05542
1.06748 -4.30576 10.7618
3.60448 3.22483 9.12333
2.4261 -0.202788 7.66152
1.30584 -0.188799 7.78703
1.35977 -0.169793 7.69308
0.80184 -0.744169 8.10787
2.50233 -0.178731 7.68298
0.518819 -0.757368 8.07645
0.998165 4.91929 8.19149
-2.14804 3.4429 8.70075
0.465756 -0.785931 8.18046
2.46172 -0.155754 7.68105
-0.618898 3.15526 9.03982
1.49132 -0.106349 7.66018
2.38994 -0.103633 7.63575
-1.85085 -0.860242 8.23032
4.0139 2.29696 9.8593
2.51738 -0.102166 7.72281
1.53471 -0.0876216 7.66263
2.21146 -0.0327067 7.59657
-0.616386 3.09071 8.9991
2.2404 -0.0221094 7.51447
2.03947 -0.00471437 7.52607
0.231207 -0.940594 8.2625
2.18088 0.022687 7.54112
1.40416 0.0494965 7.56786
1.78059 0.0483651 7.47753
1.47576 0.0601423 7.5852
1.86395 0.0646363 7.48213
0.127544 -1.02935 8.28702
1.48613 3.69627 8.8278
0.0372551 -1.07396 8.37708
1.36806 0.0935124 7.59249
1.45187 0.0895468 7.60188
0.204555 -1.11852 8.36297
3.6766 1.98693 9.91868
1.9193 0.180111 7.38985
0.732615 3.72766 8.68947
-2.24457 -1.22669 8.52313
0.375529 -1.22006 8.42987
2.02314 0.237112 7.42272
1.68186 3.77043 8.61113
1.89385 0.265352 7.44368
1.8431 0.275787 7.46
1.87947 0.316811 7.39022
1.64147 3.83457 8.64152
1.77709 0.343821 7.41128
1.02212 -1.45042 8.57104
3.66564 1.95862 10.032
2.02333 -1.52394 8.63548
0.486715 -1.52824 8.71741
1.72662 0.527212 7.53921
0.497255 2.84185 9.24661
-2.47631 -1.83899 8.97624
1.73322 0.750006 7.74677
1.32866 -1.86266 8.91955
4.54593 1.05207 10.6987
4.52459 1.06891 10.744
3.4289 2.41358 9.73797
4.68962 -5.2987 15.0042
1.82309 0.80532 7.82181
1.77174 0.833037 7.84904
-3.31517 1.12264 10.4128
1.83214 0.846265 7.86501
-0.537875 4.57642 8.01043
1.49483 4.59199 8.06214
1.79817 -2.30094 9.30569
1.76005 -2.33861 9.29305
-3.25287 1.29293 10.1686
1.4984 -2.3752 9.24885
1.56698 -2.45506 9.35228
1.49579 -2.46366 9.3315
-0.208437 1.37053 10.1829
-2.73374 2.40729 9.52602
-0.431707 1.45051 10.1994
1.05474 -2.66969 9.50317
-0.430208 1.50253 10.1098
-0.319118 1.50857 10.127
0.97926 -2.74493 9.59797
1.23776 -3.436 10.1104
2.4583 4.21365 8.27866
2.48101 4.25637 8.30374
3.1338 4.51663 8.12091
0.0690037 -3.04557 9.82119
-0.181509 -3.03363 9.78903
-2.28952 1.68923 10.2498
0.251629 1.65967 10.0451
4.35647 1.7097 10.3592
0.124398 -3.15478 9.93147
-1.40124 -3.34481 10.0705
2.91783 1.719 10.0514
-1.74155 -4.93732 11.3395
2.47753 4.49886 8.19765
-1.45559 -3.32328 10.0684
-2.8811 2.26205 9.6665
-3.68975 -0.0483026 11.2072
1.68472 3.95067 8.62441
1.39942 -0.0664195 7.69166
0.680578 1.76175 9.87834
0.0811934 -0.883211 8.29076
1.76775 -0.879589 8.26584
-1.44046 -3.21501 9.96197
1.29679 2.44112 9.53055
3.09989 4.37393 8.11197
1.21999 2.03514 9.73075
-1.27004 -3.14626 9.89638
0.605547 -0.86652 8.24794
1.5537 0.0742926 7.49855
0.495994 1.89033 9.83512
-0.115254 -1.07185 8.35687
-0.190024 -1.07985 8.32651
-3.44178 1.79527 10.0132
2.00225 2.03809 9.89451
0.967981 3.74773 8.80436
2.06562 0.113589 7.43079
1.36728 4.79279 8.00365
1.73977 -0.146936 7.64906
2.08985 -1.57823 8.70642
-0.3218 -3.02987 9.73871
1.2809 2.4686 9.40749
1.65959 3.04617 9.14771
1.5916 3.04612 9.13671
1.95465 0.150671 7.37375
-3.99533 1.65496 10.1233
4.47696 2.00768 10.1221
-0.539154 4.29432 8.27161
-0.146466 -3.01176 9.83009
1.39218 3.73015 8.65832
-2.88468 2.48712 9.39299
0.963418 2.31891 9.66503
1.06386 3.70813 8.6809
4.71547 0.302731 11.2743
2.4644 2.34013 9.72679
1.76049 -2.96005 9.73314
-0.344438 1.62512 10.3747
1.83656 4.24623 8.19897
1.53078 -0.157407 7.70923
-0.783721 3.75323 8.65356
-0.627918 3.16664 8.93217
-0.356159 4.21405 8.18407
1.02732 3.7538 8.64497
-0.956627 2.03324 9.6416
-1.08478 1.91878 9.687
3.24435 1.58114 10.2023
2.90838 3.01351 9.23564
0.718977 3.61104 8.7137
-0.984103 4.13509 8.09046
5.09345 0.376657 11.2905
0.231794 4.28934 8.40809
-3.91583 -0.271972 11.6905
2.77265 3.78516 8.63105
0.864096 -3.03535 9.8857
-1.38601 -0.706816 8.1288
2.03129 0.279004 7.45123
-0.892305 -2.80312 9.72235
-2.29219 -1.37938 8.65067
0.29302 4.25363 8.39158
-0.307613 4.09225 8.08683
4.21828 0.437516 11.1706
-3.86817 -0.317 11.6739
0.611424 3.39089 8.76815
-2.0421 4.18639 8.27304
1.14391 2.33097 9.54609
1.04668 -0.656859 7.95739
0.892734 2.71263 9.31427
5.20038 -0.405438 11.7993
1.46485 3.34102 8.70938
3.63798 2.93834 9.29161
3.99169 1.53623 10.3899
3.22573 1.5188 10.3219
0.828791 -3.44923 10.0929
0.528754 1.46287 10.0648
-0.170569 1.45034 10.1031
3.96476 2.25512 9.82685
-3.06419 2.06528 9.57823
1.97599 3.23444 9.07305
-4.97385 -2.21206 12.7519
0.588129 1.91682 9.85631
0.467639 -3.20846 9.88144
0.741096 2.10926 9.7438
-2.91797 2.31392 9.38932
2.18998 -2.60517 9.52476
-0.924226 -0.585083 8.0984
-0.183442 -1.5908 8.75212
-1.1045 3.81788 8.45464
-2.34914 1.4206 10.3463
-3.18128 1.3957 10.1172
0.759056 2.83053 9.15329
-1.40269 1.37138 10.0719
0.0253489 -1.61443 8.73976
1.3043 3.35374 8.89798
4.00956 1.40951 10.4345
0.167722 -1.64037 8.75821
3.25864 2.87812 9.36979
2.9399 4.14348 8.31641
4.39985 1.94525 10.0727
-0.903181 -0.529032 7.9079
0.81027 3.30745 8.83172
-1.46501 1.36974 10.2419
0.4012 -0.749819 8.05395
-2.30845 1.3782 10.3308
-3.1705 2.14198 9.74573
-0.510905 2.79857 9.17154
-2.44735 0.874987 10.5308
-0.185736 -1.76403 8.90035
-0.433495 2.66259 9.3279
0.99831 3.26064 8.92821
-0.318302 4.13377 8.40274
4.49742 0.961112 10.8164
-3.7273 0.981022 10.6695
-2.4633 0.954825 10.429
1.71578 2.20516 9.62622
1.34952 3.31146 8.88038
-1.06088 -0.464167 7.79937
-0.20263 -1.82677 8.98639
3.94004 1.03996 10.8119
-0.381835 2.6903 9.34433
3.52382 2.17532 9.94823
1.34351 -1.7998 8.80122
-1.80893 -1.86359 9.06715
3.28304 2.73164 9.4796
0.548841 1.8527 9.7979
1.31443 3.28943 8.86075
1.31053 1.09716 8.9332
-1.18321 3.95623 8.47595
1.95152 -2.30992 9.31406
1.46254 4.72062 8.19785
-4.01608 -0.681969 12.0504
-0.567207 4.61389 8.02083
1.95833 3.95149 8.45273
-1.96157 -2.27184 9.32557
-3.60748 1.04814 10.6014
3.90271 1.06239 10.6614
0.741399 1.03191 10.2023
1.41099 3.26948 8.86559
1.65356 -0.43495 7.82347
-1.31606 -0.425863 7.98153
-2.80346 2.35227 9.46532
3.64468 2.173 9.92971
-0.0738697 3.93046 8.33361
1.61923 -2.18884 9.25963
1.94003 -2.15209 9.10414
-0.842285 -3.52625 10.2304
3.22141 2.77252 9.40767
4.64543 1.19786 10.6618
1.65839 0.892827 7.98298
1.58357 -2.04455 9.06719
1.41119 -2.00501 8.91924
-3.42323 0.864956 10.5107
0.364764 -3.90177 10.4708
-1.52748 -0.954859 8.26053
1.83533 2.01536 9.8736
-0.188279 4.74626 7.93722
0.738187 -1.02078 8.35461
2.53437 4.45811 8.09632
0.668621 1.68622 9.95916
-0.408077 -1.08298 8.4351
2.31466 2.04587 9.7682
-0.159662 -0.830694 8.18204
2.26322 -0.811487 8.0528
-1.94983 -3.77714 10.3493
0.970579 2.61019 9.24466
1.83119 0.154281 7.46553
-0.347305 4.08731 8.36859
-0.435755 4.16085 8.30613
-2.61415 2.9704 9.05008
2.07178 3.58039 8.79059
-0.214275 2.67667 9.38771
-0.0603681 1.31713 10.2268
1.67898 2.28862 9.80814
-1.68505 -2.40489 9.2953
0.915504 -0.650735 8.06877
0.553233 4.82502 8.00862
1.71655 0.24738 7.44197
-1.02297 -0.726591 8.07035
2.14524 3.74786 8.5217
1.97194 -2.75321 9.56141
1.86214 3.82065 8.6402
2.84565 2.19439 9.87207
1.45643 -0.231615 7.76137
2.90396 2.24519 9.7658
1.47284 3.89138 8.67283
-1.58764 1.86269 9.95882
1.25475 4.20837 8.38754
-1.2626 -3.22555 9.99863
2.08086 -1.53035 8.60921
-0.0944335 -3.48274 10.2007
2.32209 -0.316444 7.6859
3.60472 3.26015 9.04426
1.99335 3.86649 8.41018
-1.10054 -1.6333 8.82055
-2.84027 0.725775 10.6316
-4.3354 -0.844372 11.9012
0.382491 2.60662 9.29339
1.09861 -0.562312 7.91063
0.803478 1.77657 10.0389
0.438264 3.84527 8.54447
1.5601 -1.53816 8.76118
-2.65196 2.91162 9.12294
1.46528 3.32575 8.81066
-2.30346 -2.53844 9.53934
2.21698 -2.14246 9.07763
0.586945 2.59359 9.31712
2.58464 -6.54671 12.2989
-2.61962 2.58612 9.42669
2.17051 -0.245431 7.64698
3.36436 2.98025 9.19334
-1.56015 4.05971 8.43348
-2.99766 2.22375 9.58785
1.90409 3.2487 8.97034
0.433109 1.01335 9.97652
2.48241 2.82714 9.4713
4.70943 -1.62515 12.5459
-1.66221 3.4258 8.72816
-1.74714 -0.842247 8.30105
2.26124 -2.42833 9.3228
-2.21413 -4.24514 10.8079
-0.419415 4.26969 8.28199
-2.99243 2.49175 9.35458
2.21658 3.65623 8.55285
-2.13928 -4.11697 10.7269
-1.07512 -1.16725 8.4893
-0.565569 2.778 9.25958
2.68866 2.50002 9.46218
1.59688 3.82887 8.52726
-0.860018 3.2562 8.90222
3.44897 2.40598 9.76599
1.87029 2.0478 9.69346
0.832403 1.9723 9.72267
0.246979 1.67417 10.1053
-2.17542 1.61361 10.0385
2.12616 0.203689 7.41365
1.90566 0.168127 7.37768
1.40556 0.0463204 7.61188
1.87003 0.0226696 7.61516
2.15991 0.0122628 7.46911
1.52771 -0.092946 7.64553
2.28268 -0.123441 7.6025
2.59176 -0.197284 7.77715
1.2441 -0.281489 7.74478
-0.485692 -0.370464 7.86042
1.02384 -4.38354 10.7346
-0.840439 -0.480935 7.97587
0.989614 -0.624471 7.99528
-1.97475 -1.10449 8.36336
-1.20874 -1.23416 8.49885
-0.402673 -2.07481 9.24809
0.111718 -3.13913 9.87221
6.42721 -5.49208 15.3736
-1.74281 -3.67313 10.213
-0.412073 1.40785 9.95609
0.0257309 4.69972 7.94523
-1.11543 1.8572 9.80436
-2.70268 2.54553 9.65026
-0.563283 4.56482 7.9529
-0.536865 4.6003 8.07658
1.48345 4.57136 8.04394
-0.272994 4.51603 8.08264
3.13321 4.49934 8.12674
0.3729 -3.8795 10.4045
1.734 4.53462 8.22059
2.47293 4.50302 8.23002
3.18225 4.47081 8.20486
-0.898367 1.58654 10.0143
-0.524481 4.24535 8.19001
-1.69758 -3.7867 10.3615
0.228088 4.22911 8.30822
2.44288 4.18886 8.24807
-2.75159 2.02037 9.3854
-0.963293 4.18757 8.26664
-2.04953 4.18151 8.28966
-1.66498 -2.50599 9.39337
1.23628 4.11806 8.2489
-0.99105 4.08117 8.19826
2.93506 4.12982 8.31304
1.10078 -0.570796 8.03307
5.66151 -5.38491 15.3362
-0.0973569 3.9558 8.40516
1.37274 -3.48114 10.046
0.0308683 -0.573229 8.06676
3.20413 3.84736 8.43953
-1.11291 3.80371 8.44938
1.52773 3.868 8.66072
1.68433 3.74717 8.58539
1.40536 3.7922 8.83527
-1.25183 3.61678 8.65205
-1.40862 -3.34989 10.0808
0.823688 -2.97786 9.80774
2.03235 3.48873 8.78212
3.89103 3.45439 8.93868
-3.29397 1.39596 10.2338
-1.92984 -3.37361 10.2522
1.48042 3.38147 8.81862
3.93232 3.41174 9.03019
3.51762 3.42904 9.08389
-4.5156 -4.23725 13.1141
3.45782 3.35165 9.03219
1.40977 3.2627 8.85243
-1.44911 -6.23085 11.6498
-2.68363 2.20643 9.57844
0.993665 3.25357 8.94333
0.831692 3.19392 8.89125
1.95537 3.18141 8.95282
1.64681 3.0087 9.08259
-0.213038 -3.06012 9.90894
1.75382 3.10906 9.01893
0.497774 2.84881 9.12788
2.90972 1.53976 10.2631
1.81433 0.220841 7.52596
0.757669 2.80845 9.14202
-0.524957 2.78784 9.19994
-1.74808 2.77831 9.17813
0.48571 -0.706125 8.00828
1.37012 0.161927 7.78486
3.2324 2.78897 9.45484
1.09167 2.72227 9.24966
-0.722968 2.75567 9.42945
0.941041 2.69229 9.35749
-0.227383 2.6565 9.32847
-1.17588 2.63425 9.24735
0.5652 3.36095 8.95238
-0.425512 2.62138 9.24185
-0.288935 -2.72235 9.50175
0.972056 -2.75584 9.60687
0.480205 3.87868 8.57053
-2.88302 2.45493 9.34256
-2.80482 2.4756 9.56388
-2.78787 2.3665 9.30078
-2.75861 2.37856 9.48298
3.94395 2.41774 9.71759
3.62055 2.4283 9.76561
-2.872 2.39355 9.64928
1.7319 -2.61246 9.49279
1.13035 2.33181 9.55955
4.052 2.35505 9.82248
2.46212 2.34225 9.76112
3.44988 2.27767 9.6476
1.47765 -2.4593 9.22455
1.7532 -2.50446 9.39204
-0.912176 2.2727 9.67963
1.35505 -3.42906 10.0573
1.65658 2.26063 9.68566
-3.01838 2.21732 9.64143
2.27465 -0.0743269 7.52566
1.35368 3.67714 8.86247
-0.859782 2.15065 9.58165
2.01076 -0.0925196 7.64152
1.48966 -2.39656 9.2958
1.75717 -2.38171 9.31014
3.59482 2.15426 9.86513
-2.90322 2.10662 9.75789
-3.16009 2.12563 9.88668
2.36748 -2.28033 9.14911
2.15549 -2.26889 9.18501
-1.95453 -2.25406 9.30803
3.62123 2.08728 9.99872
3.5348 2.09234 9.99979
-2.46134 1.75406 9.86101
2.21154 1.96386 9.78473
1.93932 -2.15409 9.12089
-2.47312 1.82858 10.0935
-1.10145 1.91821 9.67982
1.25002 -1.89309 8.78342
-3.58176 1.77394 10.2235
0.581588 1.89941 9.82279
0.535918 1.84836 9.7727
1.40812 -2.03409 9.04855
1.56599 -2.02985 9.04077
-2.33319 1.8529 9.78194
2.70387 1.8328 10.0103
0.699974 1.84209 9.9493
-0.615627 1.86832 10.0786
3.00964 1.70809 10.0777
-1.75764 -1.85158 8.92133
-2.41358 -4.18617 10.6036
-2.49452 -1.85549 9.04996
3.7161 1.99948 10.0703
-0.232968 -1.82055 8.90777
1.22397 -1.82406 8.8806
1.98292 2.01637 9.81811
1.34036 -1.81817 8.87222
3.26734 1.59417 10.3224
3.92383 1.59 10.4349
-0.826332 1.51786 9.95523
-0.444006 1.51696 10.2232
2.34163 -2.23101 9.20165
3.95696 1.51412 10.34
3.19363 1.492 10.2328
0.51617 1.48126 10.1774
1.53703 -1.72296 8.78028
-0.0403351 -1.67823 8.72955
4.09045 1.43841 10.6839
-0.218862 1.36971 10.1469
-0.000197703 -1.63557 8.74807
0.172902 -1.63708 8.76479
3.6537 1.2875 10.3837
-0.195288 -1.7748 8.96597
-3.34774 1.2268 10.5395
-3.39527 1.1989 10.4749
-3.52485 1.16113 10.3816
1.21519 1.00778 9.10346
4.61778 1.14249 10.7018
-3.41915 1.46764 10.2116
0.523011 2.2061 9.55512
4.58224 1.08733 10.8941
1.7749 0.738079 7.77483
1.02101 -1.46583 8.64816
-3.68689 0.954511 10.5856
-3.7666 0.927358 10.4886
4.52671 0.957592 10.9861
-2.36683 0.89481 10.3942
1.81115 0.644947 7.71779
4.47423 0.773404 10.8061
2.18796 -2.589 9.48283
1.87891 0.450381 7.45722
3.62622 2.37394 9.72524
1.98916 0.35027 7.50627
-2.33257 -1.3907 8.73972
1.78109 0.345229 7.39561
-3.26961 1.32793 10.4373
1.70134 0.352668 7.46285
0.203564 -1.3331 8.52771
1.86818 0.29775 7.35686
2.10189 0.266714 7.44337
1.84385 0.264441 7.45259
1.72009 0.249209 7.47852
2.01384 0.237199 7.41611
4.69397 0.301459 11.2677
-0.594972 -1.23243 8.48125
1.57766 0.0800027 7.63945
4.68138 1.21164 10.7981
1.4752 0.0599748 7.63112
1.53692 2.60445 9.4887
2.23267 -0.0389002 7.5475
-3.78469 -0.068138 11.4387
-1.74632 -4.99323 11.2691
2.06443 -1.53307 8.58247
-0.230482 -2.79908 9.68688
1.58618 -4.66409 11.0111
1.52294 -0.176641 7.70129
1.35416 -0.176516 7.69765
-3.79395 -0.323287 11.4644
2.57871 -0.247318 7.73954
1.29898 -0.242126 7.76074
1.34808 -0.261464 7.75439
-0.185226 -1.08706 8.35815
1.31497 -0.30459 7.86086
2.67921 -0.329169 7.78086
2.44902 -0.334979 7.80823
-0.131272 -1.07462 8.38581
0.032663 -1.05834 8.26371
3.24703 2.68163 9.3812
1.05669 -4.23974 10.6059
-0.147997 -1.02282 8.26694
-0.404807 -1.01438 8.37648
-1.29958 -0.428322 7.90682
0.306312 -1.01725 8.34602
1.64709 -0.442708 7.88627
-0.627518 -0.444277 7.91645
-3.88622 1.02192 10.7539
-1.55013 -0.962939 8.32587
-0.913252 -0.585358 8.0106
-2.47581 0.891351 10.5713
1.044 -0.601181 7.99954
0.117807 -0.612483 8.06079
4.5299 0.796234 10.8263
-4.11112 -0.973692 12.334
-1.38403 -0.703044 8.10168
3.62778 2.92517 9.25733
-1.03794 -0.74309 8.16257
0.597377 -0.882442 8.32288
0.796914 -0.759205 8.14998
0.403347 -0.754911 8.11413
0.741838 -0.77256 8.12772
0.509819 -0.768189 8.10406
1.85077 -0.782187 8.01394
0.463615 -0.804021 8.23353
2.26167 -0.827097 8.10158
2.8254 -2.98203 9.66331
1.37187 4.85661 8.10793
1.88226 0.219366 7.4092
-0.629317 3.17409 8.94319
1.90288 3.23357 8.97793
1.92209 -4.05778 10.6179
2.26653 3.42435 8.86985
2.40709 3.45167 8.88507
2.32054 0.0119571 7.46193
1.46307 -0.0238785 7.57195
1.04768 -0.658991 8.03036
1.09673 3.74277 8.5608
2.66903 -0.211467 7.80096
-0.104252 -3.48524 10.2147
1.8526 3.75853 8.51011
1.45567 -0.233313 7.79042
-0.0902556 -0.573705 7.89419
-2.15624 3.96023 8.3536
2.91041 4.01622 8.44456
-0.932705 -0.550467 8.03049
1.15981 4.15466 8.46953
-0.386684 4.17602 8.27599
1.57433 -0.972711 8.29545
4.26047 1.64393 10.6402
-0.804436 -6.51524 11.8062
-1.43978 -6.20786 11.6302
-1.39274 -6.18093 11.7499
2.07687 0.0198178 7.46815
0.432823 -0.700235 8.08011
-0.583178 4.62567 8.03899
1.02769 -4.4268 10.8178
-2.55655 -1.81335 9.0727
1.09368 -4.36309 10.8875
1.33569 0.144452 7.68795
-2.37792 -4.14696 10.4911
0.100701 1.33441 10.1437
1.66335 -4.13101 10.5126
-2.32569 1.65917 10.0229
1.48487 4.58766 8.06545
-0.876804 -3.66577 10.3924
-0.8893 1.97207 9.59316
-2.46958 2.40935 9.46608
-2.85528 2.42997 9.51586
-2.76117 2.37787 9.53091
4.01454 2.33431 9.73136
3.49667 2.31574 9.79163
-2.76253 2.09853 9.53228
3.59556 2.14415 9.85048
-2.88251 2.08607 9.68534
1.86054 2.02543 9.59521
-0.968498 1.99319 9.61175
0.111937 2.59575 9.34112
0.833032 1.96284 9.68906
2.19718 1.95077 9.74177
-1.10408 1.91746 9.70755
3.6442 1.91735 9.83562
-0.662453 2.63764 9.21025
1.38147 -3.51272 10.0987
-0.033367 2.6836 9.35945
0.585382 1.88258 9.79505
0.039973 2.71778 9.40393
0.532209 1.85208 9.75858
0.683718 1.79055 9.75005
3.21157 2.77849 9.41908
0.612881 1.65335 9.82752
-2.19071 1.61032 10.0133
2.90185 1.53289 10.2212
3.93321 1.49162 10.3074
-0.432273 1.44191 10.1334
3.93227 1.47222 10.5138
3.65271 2.95098 9.34664
-0.218078 1.35852 10.1
-3.2543 1.33623 10.3792
0.0998767 -3.13519 9.84056
1.64107 3.01271 9.12112
0.753413 1.14141 10.2773
-0.530094 4.2512 8.20469
-3.24283 1.12061 10.1727
-3.5164 1.13858 10.3464
0.0719259 -3.00428 9.67267
1.79042 0.826881 7.91658
1.84585 4.26344 8.25392
4.56283 1.0764 10.8202
-3.57879 1.04753 10.5281
-2.4285 0.915803 10.5829
-1.04485 4.29386 8.37299
1.78275 0.620011 7.62669
-1.94227 3.03573 8.97924
1.76119 0.413979 7.4551
-0.629401 3.10558 9.04927
1.82261 3.16453 9.07144
1.83639 0.251991 7.37126
0.992451 -2.78822 9.71167
1.8836 0.216354 7.47705
-0.342131 4.18711 8.33447
0.846297 3.15474 8.83139
1.36818 0.0810576 7.64947
1.71606 -2.58412 9.34947
-0.877124 3.25202 8.92019
1.84309 0.0220554 7.46965
2.23999 -0.0359248 7.5501
2.3139 -0.0777237 7.65973
1.53144 -0.0980765 7.66133
-1.69285 -2.41921 9.30511
1.48623 -2.40272 9.30493
-0.888706 3.32686 8.80517
1.25635 -0.288711 7.81833
1.77566 -2.30491 9.40616
2.63171 -0.306125 7.76509
-0.342955 4.12623 8.41154
-0.485121 -0.36865 7.85717
1.56364 -2.14109 9.05125
1.6153 -2.12504 9.07551
2.6553 -0.45376 7.8887
-2.46819 -2.05326 9.1026
-0.0535495 -0.592199 8.09391
1.06156 -0.611004 8.0313
0.116703 -0.611449 8.09715
-2.19494 3.48215 8.86013
0.995773 -0.627319 8.00661
1.2728 -1.94187 9.01652
0.504231 -0.785999 8.16862
1.32011 -1.86758 8.87118
3.17264 4.033 8.49399
-1.78928 -1.87865 9.04579
2.11285 -1.84632 8.87109
1.48489 3.66467 8.77384
1.22745 -1.78642 8.71573
0.0318837 -1.06609 8.2683
-0.181723 -1.0497 8.21697
0.188336 -1.14515 8.39957
-1.23254 -1.24565 8.63712
2.58617 3.97915 8.47147
-2.43343 -1.72532 8.9666
0.384289 -1.22498 8.34902
1.52447 3.84466 8.61909
4.27553 0.840313 10.6038
-3.81732 -4.01132 13.2652
1.5478 -1.54761 8.70532
-2.83976 0.716566 10.5579
0.120167 3.92854 8.5229
1.00525 -1.46945 8.59299
-3.82932 0.939816 10.6058
-3.7078 0.952033 10.6614
-1.2324 1.93672 9.70421
-0.892858 1.56506 9.91149
0.480258 3.85541 8.54154
-3.48298 1.78801 9.87224
0.924755 -1.35807 8.4789
-3.39561 0.998878 10.5629
1.35186 -3.36747 9.89916
1.39606 3.70273 8.66635
0.0307483 -0.577222 8.13008
0.207177 3.94509 8.4053
-0.1014 3.941 8.3589
2.94336 1.73893 10.1825
2.75683 3.74105 8.58107
-2.15442 3.95555 8.34797
-1.51814 -0.617863 8.10079
-1.45014 -1.04669 8.32493
-0.408633 -1.02 8.42662
1.57133 -0.976467 8.26272
0.226541 4.23062 8.3147
1.33793 -0.0374134 7.69993
1.78357 -0.0397385 7.70965
1.52521 0.174868 7.4506
-1.64679 -2.4961 9.32333
0.208328 4.00651 8.4396
3.81724 -5.64003 14.0742
2.54459 4.1797 8.3406
3.03178 4.2042 8.36008
-1.26422 3.62962 8.69453
-1.88797 -0.872455 8.33317
-0.381477 4.32464 8.28548
0.496082 2.79743 9.18731
-2.59583 1.77338 9.75764
-1.71123 1.80144 9.67184
-0.162744 2.16749 9.72624
-4.02049 -0.957141 12.1015
2.02715 2.43735 9.5589
-1.34736 -0.605415 7.97115
0.156396 -1.98078 8.88647
-0.902562 2.37442 9.71984
-0.116344 -0.588136 8.07835
1.08324 -0.571626 7.88025
-1.67831 3.45373 8.83353
1.22853 2.29347 9.61204
0.755629 3.44218 8.86333
2.15689 4.49459 8.0514
-2.6418 2.48011 9.45905
3.93837 1.254 10.8295
0.612627 3.40108 8.82795
-2.98155 2.19524 9.51403
-0.837181 -0.476781 7.87258
3.77049 2.23716 9.89711
1.52329 2.49723 9.40398
-0.138336 -3.78234 10.3991
0.82882 2.54064 9.37588
-3.05699 2.06351 9.59396
2.08631 1.98891 9.60047
2.13926 2.09245 10.0644
2.52782 4.46816 8.15479
-1.98591 -2.28356 9.40796
3.21073 2.71267 9.56475
1.55064 -3.62741 10.3342
-1.25713 1.92548 9.90227
-0.835936 -3.52359 10.2154
1.97385 1.90658 9.89926
1.43938 -0.244982 7.70839
1.28602 3.31539 8.82927
-0.184426 4.42089 8.11741
-1.84727 2.71396 9.32946
1.52881 -0.178839 7.74334
-0.10981 -3.44239 10.1224
-2.52311 1.79882 10.0738
-1.63645 -2.51025 9.54376
4.32711 1.78874 10.2738
0.668241 3.3287 8.92066
1.33418 3.32909 8.99027
3.28507 2.87172 9.48758
3.31773 3.30606 8.98712
2.3533 3.24366 8.83558
-2.90246 1.55479 10.1987
-2.28002 -2.57391 9.51116
-0.88689 1.47485 9.84092
-1.65502 4.14596 8.25147
3.18325 1.49632 10.1764
-3.39635 1.46544 10.1526
4.01768 1.4021 10.4523
1.5346 2.59067 9.47002
-0.125583 -1.55991 8.83482
-2.87416 2.44691 9.32972
0.791141 -0.758341 8.056
-0.0744199 -0.67138 8.0261
-0.810965 -6.5117 11.8116
-0.540631 4.58823 8.06022
-0.264714 4.55933 8.10598
1.65362 4.45406 8.15129
1.017 -4.36185 10.6654
1.07724 -4.26047 10.5906
3.81291 -5.61618 14.0228
4.26153 -5.8273 14.6363
-0.524369 4.2704 8.18833
1.84039 4.23957 8.18196
1.85927 -3.87729 10.1211
-1.01136 4.19184 8.18189
2.48204 4.24771 8.34101
-2.26057 4.24053 8.33608
-1.03215 4.22901 8.35275
-1.57276 4.12216 8.15852
1.51548 -3.50609 9.97721
1.39341 -3.47602 9.99707
-2.91639 -3.99571 11.5339
-0.832339 -3.50229 10.1691
-0.355418 4.18564 8.47843
1.24282 -3.42144 10.0425
0.205128 4.02993 8.47762
-4.57284 -4.39266 13.0226
0.125901 3.976 8.6085
-1.82101 -3.33029 10.1209
1.62712 4.04711 8.79939
1.59433 3.79338 8.49555
-1.8065 -3.18277 9.86616
-1.44615 -3.21326 9.95957
-1.08663 3.70278 8.3612
-0.410374 3.6863 8.50293
-0.182094 -2.99633 9.69138
-0.847238 3.50281 8.62022
2.36458 3.38785 8.76327
0.752493 3.34152 8.62171
0.604565 3.42078 8.8294
1.96899 3.35061 8.71751
1.08081 -2.75293 9.774
0.672315 3.3668 8.98788
3.00408 3.28802 8.85007
1.50192 -2.5037 9.3328
1.62033 -2.51146 9.34214
1.32423 3.2731 8.81057
-1.67432 -2.41118 9.30007
0.861215 3.19224 8.89552
2.15007 -2.29872 9.21198
1.97873 -2.11954 9.09327
3.59339 3.22291 9.1315
-2.44972 -2.01896 9.03453
0.248614 -1.99997 8.91235
1.26803 -1.90414 8.76576
1.33104 -1.86208 8.81762
-1.78391 -1.89494 9.12084
-2.88362 2.90202 8.96553
1.2541 -1.81008 8.85504
0.776963 2.81151 9.18996
-0.20131 -1.79096 9.03203
-2.45691 -1.7484 9.05117
3.29511 2.72174 9.17868
1.6738 2.68803 9.19138
3.33831 2.72408 9.37322
-0.0332742 2.70303 9.40786
1.54467 -1.52025 8.62285
0.113044 2.63335 9.4021
-0.297224 2.6109 9.29788
0.863553 2.63242 9.49165
0.23471 -1.31875 8.51011
-2.38158 2.49392 9.31747
-1.21482 -1.24046 8.53437
-2.67299 2.3142 9.31022
-1.87572 -1.15944 8.37444
-2.82708 2.37765 9.53651
0.364948 -1.16301 8.40396
-0.111912 -1.13641 8.37474
-2.69584 2.35471 9.59687
0.0219112 -1.08208 8.41949
2.57683 2.41947 10.0752
-0.164638 -1.06022 8.4232
-1.4594 -1.03521 8.39572
0.307584 -1.01435 8.29075
-3.00301 2.20563 9.61208
-0.843225 2.1255 9.50521
1.6758 -0.929754 8.22089
1.78005 -0.935567 8.22879
0.0959892 -0.874133 8.17172
3.78307 2.18954 10.0649
0.766086 2.09173 9.74249
-0.419871 -0.723101 8.2113
-0.971604 2.00179 9.60377
-2.62751 1.99265 9.57301
1.06963 2.04936 9.97643
0.636268 1.98112 9.63004
0.548084 -0.602107 8.02206
2.19014 1.91092 9.91383
-0.108654 -0.579218 7.97179
0.0430072 -0.574855 7.98362
1.08612 -0.581243 8.07943
0.553958 1.88436 9.80765
2.79302 1.93012 10.1581
-1.07091 1.83977 9.68908
0.697401 1.87648 10.0417
2.59859 -0.39543 7.82265
2.43189 -0.335209 7.68728
-2.90052 1.75921 10.1043
1.25711 -0.289305 7.7447
0.623331 1.69097 9.87991
2.97821 1.66558 9.9253
1.35886 -0.270464 7.774
0.253828 1.68985 10.1146
-2.83189 1.68757 10.0834
1.344 -0.19658 7.82495
1.41159 -0.162481 7.65944
-2.17509 1.60498 9.98397
2.41031 -0.165525 7.48254
0.47485 1.58674 10.0515
1.54439 -0.0963038 7.72453
-0.924385 1.58519 10.0741
-0.824527 1.5592 10.0463
2.29753 -0.0199976 7.4223
1.93345 -0.000431591 7.45901
1.84341 0.0278905 7.46924
1.59251 0.0769826 7.49999
2.10115 0.140551 7.39166
1.54075 0.190435 7.59651
2.13922 0.211011 7.44183
3.89051 1.51751 10.2565
3.23448 1.53421 10.3327
1.84469 0.263334 7.47472
2.10695 0.2859 7.4892
-0.459517 1.5477 10.4072
1.88195 0.300783 7.35487
1.56105 0.494199 7.80393
4.11723 1.45659 10.7489
-2.94068 0.75577 10.8333
1.74151 0.569427 7.53857
-2.42534 0.928895 10.5228
-3.86953 1.01086 11.0407
-3.57416 1.05151 10.4809
-3.3048 1.17675 10.3668
3.08765 2.76834 9.41938
3.24557 3.82417 8.6841
-0.2473 2.12238 9.63336
2.582 1.98193 9.9768
1.99583 2.80404 9.07057
1.22561 2.61023 9.28527
-0.298022 -3.96889 10.6225
1.80384 2.9408 8.97809
-3.70195 -0.0451207 11.2658
1.64788 4.01821 8.62994
1.7145 -0.141783 7.52236
3.0177 3.47704 8.96814
0.142181 -2.04238 9.12769
1.02053 3.3349 8.81589
0.533216 2.35798 9.46855
1.40522 3.2376 8.80325
-0.241865 4.01982 8.24314
-0.124034 -3.66122 10.0784
0.187521 -1.62342 8.7179
1.61177 3.83057 8.61089
-2.78653 2.11565 9.66416
-2.86672 2.06301 9.57026
0.744861 2.10037 9.95423
0.68811 1.7884 9.70633
2.02468 1.76381 9.76281
1.7855 0.79258 7.82308
1.81336 0.601005 7.70003
1.84945 0.442006 7.38961
2.08519 0.10674 7.33818
1.32244 -0.204241 7.70124
-2.04705 -3.45817 10.5618
-0.415179 -2.00529 8.95853
1.73357 -2.25853 9.18394
2.41655 1.69426 9.99572
-0.797924 -6.47085 11.7237
1.82195 4.1903 8.12315
2.47119 4.23887 8.34286
-0.426157 4.19771 8.38315
2.52965 3.92294 8.32113
1.2939 3.62301 8.655
-1.54223 3.37902 8.62294
1.99663 3.46403 9.01023
2.3555 3.31743 8.70577
0.650931 3.28061 8.7797
0.058152 2.67312 9.20693
-2.66952 1.99152 9.63134
-1.18548 1.91153 9.72309
0.566638 1.94741 10.0877
-1.14864 1.8967 10.0435
0.575783 1.74312 10.2375
-2.24319 1.64903 10.1778
-0.433492 1.50059 10.2166
0.109599 1.34604 10.1575
-2.25456 -4.11103 10.602
-3.62542 1.07625 10.6135
-3.40305 1.04997 10.6771
-2.451 0.910848 10.5736
-1.70113 -3.71216 10.1732
1.76385 0.166634 7.37717
1.94788 -0.00403507 7.65303
1.41464 -0.179883 7.73225
2.22144 -0.206074 7.69655
0.310727 -1.26022 8.5084
0.296741 -0.99686 8.18843
0.0194859 -1.08162 8.35289
0.0155702 3.81662 8.24543
1.5163 3.88693 8.44563
3.19202 3.74938 8.5721
-1.11453 -4.89917 11.2769
-0.85335 3.23495 8.92038
3.16906 3.2032 9.0459
0.748654 2.79149 9.14972
0.129287 2.80965 9.31811
0.108767 -0.599406 7.962
-0.0450478 2.66907 9.17472
-0.0430852 -0.577807 7.97795
0.969568 2.58469 9.25958
0.0960443 2.63323 9.43964
-2.74917 2.34318 9.53788
-3.08034 1.98711 9.78025
1.87138 1.99104 9.91244
1.97127 1.89832 9.85722
4.2533 -5.8043 14.6015
0.256087 -1.95831 8.75843
-2.88312 1.73023 9.99324
2.96322 1.64952 9.91909
-0.855241 1.57531 10.1771
-2.94379 1.57209 10.201
-0.38935 4.29072 8.2611
1.51946 -1.52565 8.59643
-0.744064 -1.12086 8.44415
2.97343 4.08457 8.59682
-1.1744 -3.21579 9.95052
-0.165778 -4.02527 10.7857
1.61926 3.93356 8.48756
-0.70178 4.11217 8.27712
-0.10488 -1.12904 8.27524
-1.19141 -4.6889 10.8044
2.66286 3.66899 8.54024
-3.69833 -0.0535247 11.324
3.24572 1.53757 10.4503
-0.925726 1.52984 10.1114
1.5134 -3.6233 10.2435
1.52559 -0.113118 7.56189
-0.437908 3.73476 8.67651
1.33813 -1.88577 8.89217
-0.81276 -3.51376 10.1626
-0.866728 3.5324 8.68824
-4.28733 -4.26239 12.9596
1.5891 -4.01042 10.2317
1.37841 3.47091 8.77593
-3.83923 -0.314344 11.4888
-1.77157 1.94228 9.90873
2.57623 1.94474 9.87904
1.86746 -0.807122 8.15922
1.24705 -3.40703 9.97988
1.32381 3.26755 8.84622
1.19888 2.07277 9.94319
-0.416779 -0.751695 8.26865
1.8624 2.05152 9.68356
0.882995 -0.48438 7.92059
0.235925 -1.27556 8.20093
2.13884 -2.28289 9.13447
1.5422 3.06975 8.9389
-2.33101 2.42578 9.17104
1.57877 3.03705 9.14033
1.21835 2.59411 9.27918
-0.386237 2.55976 9.03572
-0.218644 2.56732 9.09296
0.367211 2.81808 9.11124
-1.69479 -2.43008 9.2962
0.562783 -0.610649 8.02588
-1.32553 -0.60175 7.91542
2.45711 2.74085 9.18718
-1.54283 -0.621811 8.11203
-0.822341 -1.23731 8.60963
-1.25203 3.27211 8.86691
0.755631 -0.774535 8.20032
2.38701 3.65002 7.82687
1.77491 1.97132 9.2938
1.57838 2.55266 9.0788
0.678165 3.49938 8.14365
-4.20384 -0.815251 11.5273
0.263942 1.57673 9.6152
1.52826 -4.75302 11.2563
-0.286009 1.52736 9.67219
2.12103 -1.8569 9.00035
0.897294 3.48135 8.19125
-2.45683 -2.03654 9.05815
2.73282 -0.225497 7.79253
-3.7842 -0.646685 11.4029
-3.80743 -0.634995 11.4003
-0.803104 1.44763 9.49457
2.42888 -0.184001 7.59048
0.12823 2.38472 8.93534
2.27328 -0.0303892 7.64647
1.87389 0.0294526 7.54794
2.21963 0.0497992 7.56672
-3.57098 1.82726 9.4
3.30648 -2.71018 9.89863
3.24033 -2.65623 9.68045
0.0811913 2.58774 8.95442
-0.214012 1.31444 9.64442
2.10445 0.272779 7.41573
0.108994 -3.13899 9.97243
-2.58517 2.0092 9.31098
1.97704 0.351237 7.3847
-2.66344 2.02992 9.07679
1.575 4.41334 7.50879
-0.9223 0.539923 8.71635
-3.13695 1.05221 9.87049
2.58669 -3.54958 10.4456
-0.810704 0.950441 9.23571
3.92084 2.46047 8.82147
-1.86205 2.95486 8.60251
-0.431108 0.771454 9.03234
1.76365 0.826311 7.70218
1.32349 4.45107 7.4327
-3.62918 0.909919 10.0496
-1.23453 0.858083 9.27277
0.424521 2.72315 8.67671
-0.101246 -1.13894 8.47969
-0.732725 3.50366 8.1071
0.822461 1.90584 9.39778
-2.36997 -1.61984 8.7736
-0.812194 -0.450644 7.89935
2.70032 -0.2852 7.83493
-2.05207 3.28106 8.27446
2.54347 3.47693 7.97504
2.76393 -0.0973102 7.71766
-2.17753 1.30251 9.77294
2.0335 -2.81972 9.83078
-0.819265 3.16112 8.29972
1.91622 0.182397 7.4007
-4.13847 1.13404 9.89976
-2.75895 2.38576 8.98318
1.79989 0.472198 7.38537
1.38894 2.43195 8.9785
-3.61703 0.888713 10.0454
1.1922 1.03252 8.91589
-0.594229 2.92137 8.59363
3.49591 3.1274 8.05407
0.242768 -0.958374 8.35999
