2.03406 3.69125 6.8035
-0.56035 3.54165 7.06598
-0.584533 3.47448 7.03944
-3.20816 -0.0474677 9.85763
-0.977548 0.305612 7.65304
-3.08065 -0.256866 9.26622
0.978377 3.47234 7.08345
-0.408387 -0.343077 6.87045
0.102798 3.21851 7.0485
2.31261 3.16519 6.72877
3.66721 -5.01237 12.7845
1.51419 -3.79998 9.80045
0.515291 -0.544113 7.19566
-2.59351 0.869857 8.59188
-0.742442 2.82878 7.85177
2.4113 1.32881 8.79891
-1.28856 -0.904877 7.47356
2.49219 2.86131 7.47928
2.53068 2.75743 7.34711
-0.765526 1.25802 8.42795
0.379136 1.33686 8.49762
-2.41625 2.4272 7.55241
-0.702903 1.29343 8.43755
-3.85781 -3.65696 10.9551
-0.135496 -0.928306 7.39671
0.0311194 -0.984261 7.6388
-0.56473 -1.0001 7.55324
-0.481673 1.39971 8.45748
0.319868 1.52189 8.64041
1.84358 2.48851 7.46109
0.434835 -1.1001 7.68274
1.32842 1.57387 8.05598
0.312338 2.34934 7.65342
0.0313794 -1.37706 7.78324
1.75646 1.69763 8.21935
-0.342675 2.29636 8.16162
-0.236116 2.15509 7.75456
-2.05767 2.13654 8.14262
-0.0265455 -1.46556 7.77053
1.99867 1.84736 8.07884
1.19561 -2.32633 8.57778
-2.49306 1.93975 7.97149
-1.44869 -2.18329 8.37818
-2.63381 1.81303 8.21672
1.80321 2.16737 8.58853
1.74258 -1.895 8.12686
1.94145 -2.06732 8.32224
0.205379 2.18105 7.95118
0.146665 -1.41549 7.67758
-0.946601 3.16553 7.17805
1.05291 -4.09715 10.3453
1.72034 2.40717 7.91895
0.401345 3.23491 7.20448
-3.84048 -3.55227 11.0217
-1.78458 2.84453 7.30085
-3.21048 1.17685 8.50964
-1.37814 -0.88141 7.50166
-0.134569 -3.3683 9.09933
0.413236 -0.498405 7.3034
-0.810141 -0.520607 7.22082
-1.75631 -0.930631 7.41369
0.677694 -0.681017 7.29226
2.2616 3.39529 7.33497
-1.32121 -0.595953 7.16286
0.710018 1.51184 8.68586
1.68557 1.77234 8.55246
3.20158 1.66098 8.7928
3.82221 1.68425 8.80001
0.654431 3.21267 7.51987
4.85233 -0.391878 10.258
3.43326 1.93398 8.43563
4.95922 -0.198987 10.1007
-0.707813 1.32548 8.73721
4.0206 2.05796 8.59757
0.143118 2.17983 8.19321
-0.289758 1.30054 8.88162
3.49512 2.04243 8.43685
-0.34483 1.22656 8.82168
0.0906862 2.33153 8.11026
-2.27998 1.78518 8.39939
-2.3157 1.81403 8.44734
-2.43612 1.84776 8.34573
-2.41206 1.8538 8.35528
3.81422 0.840217 9.46938
3.89306 0.917733 9.32178
-1.66418 2.67405 7.82606
1.27676 4.14708 6.96797
-3.28726 0.827227 9.20817
1.34392 2.20012 8.26721
0.415058 2.48587 7.97845
0.443644 -1.33233 7.73675
3.36954 3.29357 7.4436
-0.721943 2.91851 7.71663
-3.72427 1.01741 8.98714
1.29102 2.21578 8.24277
0.725725 2.88192 7.75033
3.56059 2.29307 8.31476
0.224211 -0.843303 7.42917
0.689067 1.62412 8.59251
-2.48571 2.6198 7.79619
0.186051 -0.925943 7.49654
-2.86646 0.957942 9.09129
2.02996 3.46422 7.36317
3.00014 2.91656 7.70355
-0.575587 2.69254 7.85418
-0.423692 2.42814 8.02369
1.79927 2.6085 7.92448
3.54013 2.25862 8.3637
2.55917 3.57337 7.21031
3.06274 1.81177 8.65703
0.0832098 2.00111 8.31424
-2.94588 0.981608 9.07129
1.37108 3.4258 7.46712
3.1323 2.88786 7.78695
1.62823 0.412016 6.69843
3.06254 3.46791 7.29388
2.15396 -0.149567 6.83108
1.90202 1.74311 8.59535
1.37001 3.58025 7.35349
0.60129 1.5412 8.66459
-0.649399 3.23346 7.49282
0.217503 -1.13943 7.62863
0.838597 3.3533 7.49376
-0.463251 3.96659 6.96952
0.444858 1.95998 8.30665
-2.4194 1.50011 8.67086
1.72602 2.7511 7.80406
3.93257 1.30492 9.06689
2.37478 3.06912 7.65714
3.71238 1.45664 8.87507
2.1546 3.65885 7.17552
-1.3392 1.59527 8.58527
-0.127137 1.25155 8.81491
0.0413927 -1.43642 7.87669
-1.38908 2.88967 7.66352
-1.65077 2.60417 7.81712
-0.226983 3.17587 7.54389
2.78276 3.73398 7.12325
-1.24325 -0.486064 7.09641
4.15657 1.9892 8.61489
2.09366 1.95288 8.36664
-0.948861 2.28951 8.11437
1.483 3.26129 7.50028
-1.55956 2.94478 7.6616
-2.5777 2.18085 8.12445
-1.98099 1.20706 8.89076
-2.64293 1.57175 8.58504
-2.0543 2.3867 7.99395
-0.922777 1.6734 8.5174
-1.49152 2.44912 8.01024
1.46091 2.26836 8.2094
3.05992 2.00587 8.57023
1.98947 -1.91869 8.22589
-2.38591 2.01107 8.20325
-1.52956 3.10677 7.53445
2.35007 2.45071 8.12803
0.850069 3.37843 7.47943
0.238984 1.19884 8.92424
-2.29814 1.99562 8.27143
2.96556 1.68014 8.78625
1.75808 1.76499 8.59859
2.60957 3.09304 7.52836
1.25189 2.85425 7.77056
0.587691 1.62325 8.59921
1.29243 2.8695 7.67021
1.20071 4.13205 6.99606
-2.9939 0.960107 9.04
-1.57595 2.35156 8.04917
1.95125 -2.03168 8.26507
1.3772 1.76849 8.57119
1.89158 3.64043 7.20298
-2.88939 0.10233 9.76966
0.122691 -1.20792 7.64895
-0.802855 -1.22667 7.66457
0.189466 3.5141 7.33159
1.80278 2.98465 7.58418
1.88809 3.26226 7.46502
-3.0535 0.274474 9.6366
-0.828451 1.78474 8.47795
-2.76107 1.51819 8.60381
0.155164 -1.46661 7.88345
-1.50259 -0.739836 7.26685
-2.32974 2.47795 7.91839
-0.419478 -0.345127 7.03178
3.88025 2.56914 8.02268
4.56227 -0.311425 10.2805
0.877992 4.18272 6.97456
4.5133 -0.347959 10.3238
4.90366 -0.446282 10.3396
-2.34794 2.10837 8.18028
-2.38891 2.08766 8.14117
-1.3272 -0.595367 7.17711
0.118984 2.24914 8.13642
-2.80451 0.973017 9.05387
1.96127 0.0433987 6.70682
-2.38579 2.01163 8.19101
0.219521 -0.847398 7.40723
1.3303 3.99321 7.03056
-1.71991 -0.98758 7.4648
0.185128 -0.924827 7.5081
1.34483 2.20542 8.2864
-2.09144 3.6277 7.10029
3.04321 2.90862 7.76862
1.87555 3.91753 7.04283
1.91469 3.9257 7.07441
2.09342 2.84105 7.76957
-1.04192 -1.08536 7.51535
-1.6783 2.59928 7.78871
-1.64979 2.60627 7.79642
1.89806 2.18605 8.28384
2.73092 3.86339 6.99226
3.21748 1.67096 8.82475
3.89032 0.624509 9.59436
0.230584 1.43117 8.70708
3.05514 1.79847 8.63852
4.68656 0.877609 9.39592
-0.241152 1.37723 8.75328
-2.43777 1.81681 8.42823
1.45641 2.95725 7.64445
-2.31872 1.81702 8.45596
-0.711462 1.34207 8.81812
-2.48516 1.47857 8.66714
-2.41538 1.47197 8.63615
-1.38672 2.88933 7.65198
4.02741 1.0328 9.30948
3.71953 2.18649 8.45488
4.00881 1.04961 9.17015
0.65558 0.907037 9.0238
2.16036 3.66515 7.19215
3.36102 3.29231 7.42488
2.40104 3.2368 7.46257
1.06582 0.85485 8.02067
2.96124 2.07019 8.43316
-0.246794 1.28324 8.72651
3.00086 2.06034 8.44535
1.15726 -1.66236 7.94467
-0.365914 -1.75299 8.08138
-1.2133 1.19828 8.84044
-0.344215 1.22427 8.80579
3.20793 1.14224 9.15361
1.48576 3.27859 7.53189
1.37082 3.5717 7.341
-3.21691 1.64865 8.52888
0.653844 3.21979 7.53437
-3.70934 1.01713 8.97048
3.66431 1.20251 9.1907
2.10272 1.96962 8.4251
1.70151 1.81392 8.57104
-2.91508 1.51719 8.58624
3.9067 2.09519 8.48346
1.34726 3.33309 7.47594
4.1706 2.00702 8.58326
3.95001 2.07674 8.53842
-0.640214 3.19485 7.44285
2.49735 -2.13077 8.34245
2.79187 1.29744 8.9451
1.41284 3.41262 7.48504
-2.85701 0.966305 9.08991
3.08033 3.48396 7.28774
1.78685 2.46696 8.08691
-0.987005 3.41551 7.37528
0.978047 2.3861 8.10075
1.2063 4.17292 6.99738
-0.463301 3.9853 6.99429
1.20989 4.12245 6.99535
1.79736 2.60247 7.9067
-2.64773 1.64789 8.55293
0.677296 2.47312 8.05877
-0.835688 1.67114 8.55607
3.42268 1.91801 8.47962
-2.44221 1.94058 8.32917
-2.21401 2.53991 7.82114
2.84797 1.38383 8.98013
-0.835138 3.5759 7.21317
-2.60274 1.78495 8.38182
-3.39329 1.40605 8.69015
3.49282 2.09002 8.47926
-1.3306 1.59716 8.5433
0.465701 1.28439 8.80793
0.513855 1.90576 8.40012
-2.58249 2.19384 8.13725
-1.06175 -0.332405 7.02654
-2.41928 2.22473 8.16621
-2.37252 2.21472 8.13232
3.32904 1.15611 9.23319
-1.42974 1.65513 8.52106
2.14818 2.41306 8.17625
0.536182 2.26473 8.16836
1.26029 3.99823 6.95259
3.37717 0.902431 9.36499
-0.230846 3.16537 7.55853
1.26555 -1.79049 8.06363
3.00952 2.21702 8.41095
0.571266 2.87743 7.75544
1.96777 3.96696 7.02243
1.79234 3.94281 7.08411
-2.47725 2.61958 7.77872
0.322288 1.48565 8.74252
2.56304 1.46673 8.91492
0.598607 1.47942 8.75733
-2.23955 2.2189 8.17578
-1.73818 2.23446 8.07905
-2.86853 0.0981462 9.71632
1.97432 3.6263 7.18061
-0.223484 2.1051 8.27518
-2.68987 1.66439 8.54921
1.47952 3.64863 7.26651
1.88987 3.26923 7.47701
0.64596 -0.856297 7.42094
1.69009 3.49167 7.37371
-1.48669 2.44611 7.99525
1.51433 3.38226 7.48618
2.62364 3.11723 7.57629
-1.23285 2.14031 8.16916
-1.88725 2.16778 8.14613
0.405884 3.32741 7.43238
1.72406 3.59924 7.28923
2.78363 3.58885 7.23421
1.80929 3.05956 7.59106
-1.52363 3.09394 7.50599
0.742431 1.9304 8.39011
1.44747 0.106554 6.7201
-0.943792 -1.42335 7.79082
1.14295 4.23737 6.94836
1.20393 4.11616 6.92423
1.48186 4.04368 6.91813
-3.04808 0.931498 9.06203
-2.08208 3.60524 7.07367
2.76204 3.80844 7.02035
0.233244 3.68569 7.27961
2.41429 3.03993 7.66969
1.20155 4.0994 6.94925
2.16854 3.66738 7.20031
2.1536 3.6351 7.19078
2.70938 3.47855 7.24615
1.55419 2.7291 7.80058
-1.82204 2.95644 7.5714
3.91085 0.834348 9.46098
-0.746467 2.90272 7.73836
1.18683 2.84956 7.70128
-1.65531 2.64672 7.78925
2.09982 2.81906 7.82752
0.0596097 2.369 8.04915
-0.95623 2.29955 8.12097
-2.36794 2.20412 8.12869
-2.5932 2.19324 8.16484
0.926475 2.38203 8.09364
0.975154 2.3695 8.07656
-2.48241 2.14842 8.16895
-2.36406 2.11383 8.18846
-2.11337 2.08943 8.20803
2.79319 2.37818 8.18706
-0.733474 2.03068 8.36235
0.683566 -0.653143 7.21905
1.13072 2.08541 8.24013
3.73112 2.254 8.30176
0.864563 1.99871 8.40332
-3.21344 1.6393 8.5029
3.86391 0.94629 9.37875
3.99519 2.06305 8.53314
4.04353 2.04292 8.46127
3.94845 0.999257 9.20898
-2.13965 1.58184 8.414
-2.62822 1.56851 8.64094
2.47026 1.88046 8.56612
-0.822336 1.71323 8.49636
2.61634 1.84153 8.6153
-2.45442 1.51807 8.67452
0.747135 1.66249 8.55188
-2.49416 1.48258 8.68949
-1.94253 1.4416 8.84011
3.58768 1.75984 8.70135
-1.86459 1.40748 8.76572
3.76107 2.22661 8.40708
3.86378 1.73123 8.78539
-3.27601 1.2668 8.80066
-0.265106 1.29792 8.81165
-1.94937 1.17371 8.86527
-0.123867 1.25907 8.84677
1.62664 3.6993 7.18669
-3.03074 0.997988 9.03818
-2.83846 0.964292 9.01966
3.45221 1.31705 9.00475
1.44671 -2.29242 8.50113
4.10206 1.18245 9.17253
-3.63146 0.664984 9.24591
3.9924 0.92932 9.41385
3.92674 0.920791 9.37533
-0.336448 -1.82077 8.16436
-0.981654 3.39524 7.32796
-0.282328 1.34737 8.77874
-3.31772 -0.225184 9.96139
-3.23858 -0.280353 9.94905
4.47063 -0.228381 10.1252
-0.316444 -1.78906 8.04251
-1.08965 -0.341646 7.06928
1.17879 -1.64853 7.9878
5.02119 -0.213884 10.2329
0.701542 1.61676 8.58201
-1.23892 -0.493517 7.11102
-1.56104 -1.6242 7.96082
3.16984 1.86985 8.65669
2.2618 3.50202 7.37585
-1.32925 -0.601677 7.18741
-1.19672 -0.621994 7.18887
-1.76473 -0.946236 7.45934
1.38283 3.42434 7.43554
0.175902 -0.91428 7.41705
0.117822 -0.919254 7.42462
-2.76667 1.64995 8.56927
-1.55205 -1.1147 7.54717
1.40363 3.40574 7.45785
-0.826641 1.78361 8.48879
-3.14146 1.70292 8.4645
-2.66446 1.76255 8.48891
1.22479 3.20959 7.51135
-0.978387 2.26825 8.09709
2.93365 2.57394 8.02065
-1.58618 2.3152 8.03296
-0.78876 -0.470879 7.04814
-2.61177 1.65951 8.49968
-2.45468 2.33554 8.06269
2.06276 -2.00909 8.20684
-0.379239 -1.56907 7.94698
1.35848 3.40983 7.42796
-1.3427 -1.37922 7.75818
-0.0230641 -1.48902 7.89048
-1.0547 3.12767 7.514
-0.487826 1.58586 8.62151
1.69237 2.84212 7.74267
3.5747 2.67852 7.96719
1.60548 1.73744 8.56855
-2.13105 2.26435 8.07105
-1.3378 -0.837266 7.36077
2.34773 2.44291 8.11642
-0.227095 3.17283 7.57381
-1.92898 3.87276 6.90335
0.155683 -1.45198 7.82344
-1.33037 -1.27532 7.70823
1.88546 3.25193 7.44474
-3.41304 1.37465 8.57328
1.65462 3.29111 7.48214
1.49905 2.62285 7.88971
3.55951 2.2896 8.29807
-0.28992 3.681 7.18868
1.47966 3.37104 7.43571
3.18122 2.16096 8.47228
4.10115 2.22788 8.4856
1.47884 3.63018 7.25055
0.766482 2.37329 8.05311
-2.26202 2.18259 8.1484
2.52664 2.98891 7.65838
1.58463 2.83848 7.71107
1.74975 1.75821 8.5955
-0.430146 3.93709 6.93482
2.3584 3.91889 6.90393
1.90155 3.89059 7.00521
-0.850558 3.67799 7.15703
2.16635 3.65711 7.18684
0.888634 2.37032 8.08095
2.55854 3.55305 7.19508
3.07105 3.47644 7.32028
1.44332 3.29472 7.48014
0.658577 3.23808 7.59785
-1.83458 2.97768 7.56574
2.36699 3.19277 7.42438
1.30798 3.17013 7.63438
0.553606 2.92544 7.63405
0.579654 2.89166 7.78696
1.41677 3.43008 7.51759
3.04435 2.92769 7.78416
-0.508901 2.66991 7.82862
3.36032 2.8692 7.67398
3.13272 2.80754 7.85435
1.78094 2.46243 8.03646
0.837452 2.32096 8.11222
-0.792151 3.57288 7.10697
-2.31559 2.05938 8.20929
-1.48955 -2.1343 8.28857
2.81752 2.40483 8.2468
-2.43334 1.92585 8.30574
1.01205 2.0275 8.36183
2.97292 2.06911 8.44098
-0.821744 1.77104 8.46148
2.13409 1.99651 8.3968
-0.885426 1.7679 8.53841
3.04562 2.00946 8.52266
-1.84697 3.45884 7.24146
-0.927247 1.66932 8.47423
1.07818 1.78033 8.54807
-2.93126 1.52873 8.63747
3.03794 1.85218 8.56016
-0.571096 2.28432 8.13909
-0.558125 2.33946 8.17479
0.06181 2.36861 8.01543
3.55013 1.72986 8.58056
3.858 1.70976 8.74171
4.21359 1.62775 8.83494
2.63485 1.48371 8.86042
-0.252253 1.2938 8.77814
-2.79803 1.11546 8.84416
-2.78182 1.03371 8.98401
2.74795 3.44028 7.28062
3.46221 1.32264 9.0403
-0.163939 -0.956117 7.47273
-3.07155 0.889154 9.13621
0.172378 -0.921004 7.44707
0.124039 -0.907214 7.39785
0.19114 -0.986931 7.47014
1.57817 0.735471 6.96804
-1.75385 -0.949228 7.43465
3.88207 1.02811 9.19609
3.99849 1.01753 9.20656
-0.388312 0.682924 8.18288
-2.49433 0.641686 9.38971
1.88057 0.240597 6.66711
-3.18877 -0.0372838 9.76998
4.12841 0.267342 9.9585
-0.0165421 -0.513163 7.10814
-1.23731 -0.491883 7.08487
4.4764 -0.351336 10.2182
1.48071 3.39664 7.4786
4.74001 -0.494339 10.2688
4.1141 1.12081 9.19756
1.36749 4.03999 6.92437
-1.50111 -1.65039 7.95992
3.88709 0.632381 9.58441
0.9188 2.37498 8.07409
1.15274 2.88577 7.71032
-0.126562 -0.911072 7.43398
4.07719 1.16861 9.13087
-0.497518 1.59689 8.67853
-0.347792 2.28677 8.08587
4.25042 1.37728 8.90522
0.918449 3.23514 7.60009
2.41448 3.24881 7.47209
-1.552 2.9185 7.60387
-2.96512 0.747631 9.18124
0.726255 2.85986 7.69295
-2.46959 2.61755 7.76004
2.09561 2.95438 7.66412
-0.417925 2.40958 7.97207
2.09414 2.80268 7.79302
0.715781 1.53816 8.73119
0.680566 2.44156 7.96112
-0.256012 3.61282 7.17682
2.01696 1.76791 8.54723
-0.792193 -0.514754 7.15343
-2.57209 1.919 8.33032
1.91228 2.19516 8.34662
-1.45942 1.66336 8.54435
-2.77749 1.6511 8.54609
1.95201 3.18582 7.50916
1.25186 -0.0608281 6.84085
0.855303 1.99583 8.37504
0.403442 3.32333 7.45138
-3.61552 0.661183 9.19656
0.940179 -0.584731 7.1759
-3.0761 1.05793 9.06796
3.89819 1.30215 9.01192
1.68526 3.47242 7.33128
-2.65264 1.85975 8.36607
2.83448 2.6726 7.93328
3.07095 1.79532 8.66494
-0.460275 2.38937 8.02337
-0.164822 2.31919 8.18479
2.36983 3.5182 7.34456
-0.710605 -1.43469 7.82764
2.25393 1.70857 8.70123
-2.24711 2.15827 8.21798
-2.39545 2.56237 7.81243
-0.41363 3.88994 6.96417
0.110315 2.23868 8.11355
-2.40251 2.05692 8.1156
1.19724 4.02656 6.99579
-2.11119 2.08998 8.23107
-0.310458 2.28732 8.06465
1.27131 4.00648 7.017
1.31168 3.94095 6.98496
1.09836 2.25406 8.18224
-2.4126 2.02991 8.25954
3.65461 2.40813 8.20971
2.83878 2.3299 8.21314
-2.09655 3.61553 7.09984
2.80078 2.34556 8.35491
1.34348 2.18247 8.23989
1.89819 3.89869 7.03435
-1.74788 3.61067 7.20497
3.36997 2.28599 8.25371
-1.31108 3.58998 7.1765
2.72804 3.86569 7.04035
3.72688 2.24963 8.32633
-0.796178 3.58927 7.14416
-0.259131 3.59935 7.19691
2.69915 3.75211 7.03127
-1.86042 2.26486 8.15978
-2.66942 1.81046 8.48631
1.54959 3.67623 7.12085
-1.81875 3.40022 7.20811
0.0614271 2.38135 8.04768
1.3182 -2.19723 8.30977
1.56112 -2.22447 8.42529
0.679166 2.43459 7.97606
0.472079 1.90826 8.34721
3.02834 1.9961 8.50558
3.96497 2.01933 8.58407
-0.427897 2.41082 7.9941
0.455977 2.46208 7.93621
2.52122 3.57349 7.16085
-0.38808 -1.77267 8.04884
2.63394 3.59527 7.22365
2.55437 3.54101 7.19211
-0.957175 1.68234 8.53578
2.73944 3.52113 7.32427
-0.955786 1.61563 8.58183
0.403985 2.48422 7.94713
-3.0136 1.50481 8.7364
2.7545 3.45036 7.30984
2.2486 3.41541 7.3311
-0.650785 3.2243 7.50271
1.41013 3.32425 7.46486
-2.44788 1.49053 8.61883
1.34476 3.31815 7.48451
0.42584 -1.08184 7.52143
-1.07588 3.15255 7.59019
0.443212 1.6347 8.59869
0.650898 3.21699 7.56193
0.480326 1.61156 8.58244
-0.113045 -0.954312 7.5278
0.166665 -0.924418 7.41743
1.53361 -0.86949 7.34419
-1.71977 -0.96874 7.39644
0.626079 1.57789 8.62391
-0.340987 -0.88682 7.43229
-1.47155 2.38373 7.92458
-1.86853 1.39623 8.74691
1.29342 3.13265 7.57171
0.368389 -0.667618 7.24644
1.44628 2.58753 7.87877
0.584957 1.49585 8.85744
-1.3188 -0.604573 7.13935
0.23663 1.4367 8.75096
0.120298 -0.540858 7.14887
3.79049 1.63887 8.88423
-0.697398 1.32174 8.68356
-1.30441 -0.54024 7.124
-0.722141 -0.425427 7.06318
2.35698 3.04273 7.57451
1.77666 2.99119 7.5801
-1.14918 -0.383213 7.07454
2.78438 2.7513 7.84945
-0.412081 -0.32806 6.97776
-0.678161 2.8272 7.79326
-0.728203 2.82329 7.78038
-0.360068 1.30268 8.86217
-2.73827 1.11407 8.89363
-0.358691 1.23665 8.81429
-0.999095 2.77117 7.78833
0.846553 2.64869 7.86538
-3.19748 -0.0624929 9.7933
3.35518 1.33369 8.90807
1.54219 2.69107 7.85657
-2.82632 0.966773 8.96868
-2.93964 0.966713 9.03805
1.18036 2.8554 7.74067
3.90949 1.32031 9.07872
3.9568 0.595967 9.62495
-3.08383 0.891405 9.15608
0.884459 2.79766 7.75243
-0.550642 2.68492 7.787
1.16343 0.962447 7.90192
1.71537 2.74829 7.78559
1.58312 0.654317 6.91535
-3.24644 0.801096 9.12515
4.06284 1.16499 9.10093
-2.17911 2.09386 8.03468
1.64005 -0.861927 7.35257
-2.96254 1.80694 8.44528
0.287527 3.62663 7.22247
-0.342908 3.65451 7.16309
1.96689 2.90141 7.59798
3.54376 2.65126 7.92752
-0.947914 3.31231 7.39394
-0.761157 1.92902 8.31114
-2.38262 1.82059 8.31943
1.0833 1.97609 8.35713
-2.28918 1.73773 8.40605
-0.1258 1.883 8.50917
0.740223 2.19636 8.16058
-0.842604 1.7464 8.48397
-2.55086 2.01139 8.27671
-0.420944 3.65 7.08808
-0.851538 3.65704 7.17918
2.78107 2.37696 8.12985
-2.01632 1.60611 8.50407
-1.34612 3.56659 7.11651
2.19408 3.79687 6.98555
-2.08342 2.05632 8.14425
-0.809778 3.59334 7.14845
2.53747 1.87928 8.62401
2.70208 3.76138 7.00866
2.75619 3.72425 7.02827
1.62296 3.67389 7.17032
-0.269029 3.57497 7.32016
-1.48343 1.5707 8.49448
1.84293 1.75054 8.53311
0.117622 2.23588 8.13622
2.20936 3.55356 7.16423
0.208943 3.45347 7.32704
-0.0659905 3.42122 7.30977
-2.36186 2.09061 8.17404
1.13821 -1.73239 8.0639
-1.99832 1.4287 8.72871
1.8473 -1.55408 7.96342
2.84047 2.45484 8.17492
2.71247 3.43198 7.14186
3.1769 1.66089 8.5987
3.25173 1.71917 8.8842
2.40258 1.62786 8.67406
0.550455 1.43843 8.58303
0.239673 1.42135 8.70698
0.00071329 2.29993 8.08777
-0.712522 1.32384 8.75654
0.0653567 2.32682 8.11059
-0.779545 1.29739 8.72644
-0.0885169 -1.02882 7.53876
-1.88421 2.97324 7.56267
-0.727434 3.05331 7.58692
-0.561038 2.29704 8.07405
-0.355272 1.2436 8.8221
-1.39553 2.9411 7.57783
1.30623 3.1326 7.5606
0.459086 -0.6901 7.29099
-2.96892 0.953878 9.08185
0.792315 2.88458 7.72325
-0.0223858 -0.519055 7.12017
-1.86546 2.2669 8.17339
1.74768 2.91949 7.65673
-2.86114 0.83918 9.03864
-2.47519 2.60461 7.75631
1.12624 -0.252489 6.9754
1.21691 -0.245176 6.94855
1.99986 -0.183355 6.8435
1.17515 2.83353 7.71871
-3.25244 0.794675 9.1189
0.884955 2.79575 7.73805
0.667435 0.999019 9.05065
0.458277 2.47732 8.00092
-3.17857 -0.0454248 9.7529
-0.520314 2.6734 7.86483
1.6916 2.72753 7.71335
3.75968 0.743497 9.40398
1.58493 0.542673 6.72183
3.90532 0.901413 9.27919
3.98239 0.961499 9.27894
2.90025 2.86795 7.86085
3.34862 1.04155 9.18258
-2.99406 0.747913 9.20685
1.34238 2.17057 8.23642
-1.55708 2.32039 8.04963
3.90514 1.31457 9.0673
0.55421 2.9394 7.69348
1.40485 -1.80307 8.12407
1.40809 3.29272 7.43159
1.29867 3.13752 7.53415
2.81918 2.41176 8.19877
-2.40421 1.84287 8.45004
-1.9974 1.59975 8.41454
-1.87454 1.39231 8.71947
-2.85578 1.01949 9.04388
3.39969 1.3111 9.01822
1.59668 0.713313 6.99828
2.05268 -0.133862 6.8076
1.20047 -0.173277 6.89926
-0.362131 -1.76416 8.00863
0.875879 -2.43354 8.62285
-0.434998 3.72277 7.17291
1.17855 -2.2841 8.4387
-1.49379 -2.1502 8.3385
-1.34755 3.58095 7.1339
-0.260858 3.55688 7.25674
-0.190175 3.50862 7.23145
-0.0920667 -1.01006 7.48718
-0.140778 -0.942861 7.54374
-0.341642 -0.893248 7.47609
0.140847 3.39811 7.4262
-0.939799 3.25434 7.37731
2.75186 3.51498 7.29491
2.24823 3.43491 7.32234
2.7303 3.41736 7.23722
-0.719718 -0.404764 7.04556
-0.326796 3.17662 7.38511
-1.01552 -0.304819 7.00038
1.73726 0.0078664 6.72973
-3.32238 -0.133222 9.77963
-0.718198 3.05216 7.55055
1.38004 0.172518 6.78887
2.4007 3.2273 7.41419
-3.20282 0.111964 9.6349
-1.38896 2.91982 7.67316
3.94462 0.908635 9.38653
-2.46102 0.63571 9.2387
-0.733906 2.86915 7.63549
-3.01782 0.754608 9.28475
2.95053 3.03164 7.43095
-2.07844 0.79512 9.14076
-3.28269 0.812692 9.20738
-3.18516 0.830146 9.26377
-3.04296 0.893051 9.0341
-2.71385 0.944529 9.04397
0.432418 1.36806 8.72143
0.608679 2.86999 7.73966
2.40858 1.6368 8.70753
0.628791 1.58709 8.58079
1.2423 2.81425 7.72602
0.896258 2.80145 7.77079
-2.26335 1.55646 8.58645
1.05605 1.76832 8.51498
-0.9778 1.68484 8.54354
0.769468 2.76392 7.76233
2.14959 1.97491 8.52266
-0.20096 1.85017 8.44643
-0.118655 1.86171 8.44633
-2.23683 2.5419 7.84964
-2.50265 2.5244 7.85844
2.6128 2.82179 7.66784
-2.726 1.88465 8.49007
0.479993 2.05558 8.3085
-2.43878 1.91248 8.22806
-0.747525 2.02722 8.22559
2.89355 2.33448 8.10682
3.12037 2.48332 7.90741
3.18736 2.58449 8.1778
0.152264 2.3693 7.93319
0.692951 2.46223 8.09817
1.59285 2.57401 7.91507
2.76948 2.66829 7.93973
-0.829159 3.5585 7.09623
-0.196634 3.55096 7.23792
-0.280825 3.53626 7.23283
2.15869 3.6416 7.23492
0.20419 3.40697 7.26885
1.42026 3.30968 7.5064
1.14532 3.13472 7.55383
-1.37587 2.88287 7.59646
1.72731 2.94907 7.55516
0.587533 2.84276 7.66679
2.07573 2.89882 7.669
0.0606798 2.34686 8.1329
1.54011 2.33351 7.94362
2.79895 2.38496 8.11089
1.54256 -2.24098 8.44958
-2.30355 1.72221 8.40766
-0.37142 -1.78724 8.057
-0.140576 1.86226 8.51848
-0.855764 1.75901 8.57268
0.516397 1.66352 8.66097
-2.40851 1.4545 8.51695
1.91462 1.6652 8.51517
-2.40553 1.41383 8.66479
0.610683 1.55973 8.56462
-1.90762 1.40923 8.80292
0.151694 -0.928792 7.36923
0.267462 -0.8898 7.37367
2.60322 1.44469 8.75569
0.117552 1.16269 8.8147
0.437907 -0.695217 7.20512
0.854728 1.08978 8.66153
-2.8297 0.881324 9.04922
1.2067 -0.251951 6.92727
1.26409 -0.159143 6.84501
-0.584106 3.56099 7.21731
-3.23272 -0.048954 9.95245
-3.21043 -0.272435 9.75842
0.0191731 3.37619 7.34424
2.46024 3.44653 7.21818
2.55147 3.42377 7.28949
-1.19257 -0.535385 7.15336
2.80499 3.26837 7.54773
-3.24987 0.799791 9.13542
0.51028 -0.541421 7.16391
-0.743521 2.88802 7.67838
1.21925 3.02 7.70328
2.78542 1.29927 8.93106
1.46739 -0.836704 7.3441
-0.70648 1.34525 8.77801
-0.134995 -0.938308 7.39973
0.0202014 -0.968972 7.50027
-2.48334 1.32916 8.74987
1.35878 2.65186 7.79773
0.484666 2.61405 7.89327
-0.709716 -1.08241 7.63529
2.74904 2.73456 7.82761
1.8166 2.67333 7.97555
0.342872 2.42697 7.91271
2.15913 2.38971 8.07473
-0.254318 -1.63635 7.98569
1.76566 2.14188 8.44759
-1.45008 1.62237 8.39673
-2.5249 0.6582 9.41183
-1.08984 3.00543 7.48384
-1.37374 -0.881403 7.45255
3.58172 1.78813 8.69584
1.64585 1.80073 8.54928
1.44459 2.31275 8.25268
5.01592 -0.280747 10.1926
0.862585 3.21003 7.60818
4.14842 2.07956 8.59378
1.34926 -0.075936 6.75596
1.98464 -0.0277999 6.71256
2.95897 2.06668 8.45352
4.08935 0.281745 9.87741
-2.82892 0.952873 9.00652
4.56632 1.38898 9.07868
4.57579 1.36192 9.07119
5.31743 -4.45963 12.9959
4.41596 -4.53178 13.1136
1.14419 2.15801 8.26306
-2.41682 1.46769 8.65798
5.15214 -0.0144958 10.0275
4.59272 1.12418 9.24097
-0.366462 1.23579 8.80862
-0.722243 2.91543 7.70961
-2.29275 1.77054 8.42156
-2.32717 1.82586 8.40784
3.58836 2.30826 8.37089
-0.514918 2.66712 7.88979
1.89876 2.17454 8.32618
4.73664 -0.972744 10.6193
-2.85818 0.9543 9.0582
-3.16554 0.835167 9.13841
4.25738 -1.24304 10.7817
-0.422167 2.44209 8.05927
1.80921 2.61899 7.95782
3.56597 2.27388 8.41548
0.640461 1.56499 8.61415
-1.09159 2.61332 7.91852
1.66798 2.78001 7.84338
1.60794 0.362527 6.62534
-1.87566 1.37557 8.76095
0.572977 2.9756 7.73225
1.79377 2.46495 8.10352
1.10574 3.11998 7.65976
3.31195 1.14709 9.17945
4.34372 -4.67876 12.9309
2.40748 -0.266803 6.90525
2.86395 2.37679 8.26151
-0.0942331 -1.64809 7.90045
4.46675 1.12602 9.22853
4.39456 -0.152811 10.1601
1.16877 -0.200718 6.85763
5.2119 -4.54045 13.0554
1.76183 1.77014 8.60817
-1.27595 -1.38785 7.69588
-1.90236 3.60586 7.19793
-0.359847 -0.354889 6.9792
1.83737 0.099392 6.62603
4.31908 1.40803 9.01717
-1.68672 2.61337 7.8472
1.24808 -0.131201 6.81802
2.11199 -1.47267 7.79929
4.22519 1.35933 9.09177
0.855791 2.32933 8.09324
1.29098 0.0853079 6.74546
4.7955 -0.252255 10.2152
0.0658348 2.31591 8.07843
1.11051 -0.239892 6.8908
4.84526 -0.210996 10.2611
1.19815 -0.228027 6.87467
-0.368686 1.26983 8.80286
1.18385 -0.177585 6.83605
4.47896 -0.552448 10.3753
3.13851 2.81915 7.88579
0.214347 -0.832301 7.3488
2.36325 -0.267104 6.90629
2.4037 -0.264041 6.889
5.33304 -4.59601 13.1037
0.112851 -0.901667 7.37901
4.47767 -4.63373 13.2548
4.67916 0.365189 9.80559
4.0418 -4.56814 13.118
5.34346 -4.48343 13.0652
-0.579235 2.70679 7.88003
1.5736 0.299886 6.58064
3.15078 1.68694 8.76014
1.56914 0.332815 6.60296
3.07278 1.80741 8.68041
3.91013 0.929356 9.37456
3.98356 0.93203 9.39375
1.64799 3.76462 7.29448
-0.741148 2.9351 7.76142
4.00472 1.01697 9.34253
3.74564 2.19187 8.5475
3.98904 1.91266 8.72061
4.28418 1.12479 9.26205
4.07551 2.18948 8.5413
2.62959 1.48958 8.86717
2.38945 -2.62271 8.65977
-1.84018 2.99445 7.5959
1.15142 -1.65256 7.91608
-2.46895 1.53046 8.67577
-0.343152 1.22858 8.78079
-3.22102 1.6515 8.54244
1.56525 -2.00354 8.20309
-2.6434 1.57315 8.59429
2.4663 -2.10365 8.25571
2.80405 1.3057 8.97428
-1.13969 -0.380531 7.01262
-2.44444 2.19939 8.19311
-0.98646 3.39182 7.33565
4.46289 1.12267 9.21442
0.852931 -2.38356 8.48301
5.31593 -4.63175 13.1905
1.07142 -0.259833 6.8785
-2.22365 2.54863 7.86259
3.68974 3.04577 7.80334
2.37661 2.18937 8.36519
1.82192 3.04026 7.68141
3.57225 1.85814 8.70384
1.32376 3.17573 7.65228
4.7524 -0.438612 10.3015
5.05224 -2.36778 11.5481
2.5369 2.6077 8.01761
1.35322 -3.56384 9.3451
4.79115 -0.717965 10.4834
-0.230086 3.17742 7.59638
5.26604 -1.07654 10.6888
4.38272 1.26309 9.1548
-0.829959 1.7921 8.5121
1.25899 2.86238 7.79749
4.4295 1.29822 9.15358
5.24015 -0.186158 10.0956
5.21692 -4.44334 12.9891
1.81815 0.186989 6.61796
4.93649 -0.455192 10.2905
3.39781 0.924303 9.2949
3.98118 0.972859 9.33643
5.18659 -4.9847 12.875
1.43098 0.105161 6.66716
3.807 1.07094 9.28378
0.904201 4.20933 7.06339
4.16064 1.13102 9.25068
2.20512 -0.197464 6.82535
3.41272 3.32977 7.52007
-1.40297 2.91487 7.7108
0.561919 2.95729 7.70871
1.81888 3.02933 7.67157
-0.732095 2.83752 7.78675
0.730917 2.87831 7.74492
-1.66224 2.66786 7.84537
1.81807 0.183508 6.60547
3.15786 2.83522 7.92025
1.3976 2.61556 7.88354
0.455982 2.44352 8.03491
0.0692684 2.3887 8.03104
-0.733355 2.0242 8.33704
0.146409 2.17675 8.18633
3.00865 2.07652 8.52012
2.1385 2.00077 8.43112
3.5447 2.04432 8.56656
3.07233 2.01696 8.58314
0.753619 1.71538 8.51793
3.38072 1.05478 9.2137
4.02213 1.10097 9.24264
0.60754 1.52826 8.64665
3.2067 1.62698 8.79625
-0.348403 1.30063 8.76247
-0.265314 1.29698 8.77784
1.64937 3.73951 7.25693
2.32097 -2.32108 8.44185
4.13751 1.18706 9.24412
4.60146 1.1317 9.25809
3.89177 0.630398 9.59017
2.2136 -0.0857261 6.80748
1.6143 0.307429 6.5723
0.953648 -3.78863 9.50268
1.8031 0.246768 6.6045
1.26568 0.0424298 6.7636
1.646 0.020499 6.67369
1.15834 -0.170324 6.85467
1.16093 -0.214291 6.85535
4.96699 -0.181743 10.2009
2.39546 -0.194289 6.8748
-0.702929 -0.406361 6.9763
4.44128 -0.491321 10.3446
4.75812 -0.49626 10.3207
1.07116 1.76999 8.50851
0.852257 -0.601942 7.14404
0.410282 -0.684739 7.2265
0.0105541 -0.939419 7.38345
4.1575 2.08038 8.61873
0.896202 2.83547 7.82112
-1.22257 -5.36231 10.3213
4.31666 -1.26712 10.8085
-2.65636 1.75909 8.45764
-2.23976 2.55505 7.89096
1.76171 2.9442 7.70486
1.57963 0.0042289 6.67061
-0.979992 2.28851 8.15444
-1.59307 2.336 8.09563
1.12962 3.09936 7.63016
2.46882 -2.11035 8.26651
4.56748 -0.977122 10.654
-1.98251 3.62431 7.16548
0.490654 2.17319 8.17356
4.37343 -4.711 13.0283
1.1947 -3.29455 9.09872
4.43691 1.3042 9.18166
-0.334296 3.6967 7.21043
-0.33901 3.2529 7.51091
-1.28054 -5.41875 10.2518
4.04359 0.244214 9.89056
3.95747 0.587671 9.6226
-0.111602 -3.32284 9.178
0.776207 2.39055 8.1088
5.09651 -1.06154 10.6937
1.73508 1.81569 8.55307
1.67523 0.233377 6.60116
2.74887 3.51774 7.31858
-0.272849 3.54238 7.28278
1.45569 3.31877 7.51877
1.30351 3.16052 7.61985
1.59675 2.69963 7.77288
1.75695 2.95029 7.71297
-1.66633 2.63697 7.86827
3.15555 2.8298 7.89978
0.45709 2.49168 7.99444
-2.35446 2.12004 8.1735
-1.4833 -2.11638 8.24122
1.35217 2.20305 8.29522
-2.43418 1.92462 8.30764
-0.724237 2.01108 8.29208
-2.41422 1.85151 8.36877
-2.6591 1.7976 8.40649
1.00457 2.01683 8.32338
3.00183 2.08052 8.51321
2.54632 1.48932 8.80606
3.52168 2.01607 8.4962
0.659169 1.8228 8.46635
-2.92196 1.51773 8.59983
0.493642 1.6271 8.59131
3.6081 1.75224 8.702
2.64673 1.48998 8.89175
-3.15215 0.820148 9.1449
-2.14757 0.847043 9.18031
0.122869 -0.903377 7.38317
0.200466 -0.842171 7.35262
0.661565 -0.68202 7.21462
3.18621 2.53268 8.11788
-3.18603 -0.0424691 9.75429
1.20373 -0.151959 6.83862
1.17075 -0.16895 6.86392
-2.47174 1.8107 8.42895
1.14052 -0.206224 6.83824
2.31168 -0.183778 6.90617
-0.41695 -0.310001 6.9953
-1.14751 -0.379409 7.03559
2.37782 -0.235315 6.89286
-0.712926 -0.416447 6.96624
4.5145 -0.31616 10.2204
4.47426 -0.343529 10.2099
-1.02194 1.65826 8.52568
4.72101 -4.50629 12.9719
4.2737 -0.889557 10.5952
2.00053 -0.725059 7.21298
4.11608 1.18087 9.20666
-0.348597 2.2851 8.10044
-1.40345 2.96166 7.61
0.926612 3.25459 7.63295
2.44651 3.28472 7.55121
-2.98454 0.757077 9.25902
-0.886877 3.60106 7.23779
-0.759305 1.7439 8.4786
1.26064 2.84681 7.77634
0.897641 2.82808 7.80643
2.10194 2.84379 7.7775
-1.4902 2.43249 8.0384
0.694769 2.46829 8.05033
-0.788984 -0.503099 7.04427
0.473497 1.89905 8.32236
2.2918 -2.30667 8.38185
-0.0901347 -2.99859 8.91251
0.773903 2.39332 8.12162
3.14846 2.7073 7.9302
0.424829 2.72212 7.86418
4.69789 -0.433052 10.1935
0.643987 2.89601 7.81493
4.26725 1.03075 9.22852
-2.73977 1.9613 8.29064
4.76579 -0.716848 10.4167
-1.13735 3.72343 7.14656
0.325992 -0.357578 7.09205
-0.149718 -0.542361 7.09372
-0.00444756 2.29298 8.08195
1.47676 2.34419 8.14128
-2.47809 2.03552 8.23472
1.33443 3.98891 7.06687
4.76101 -4.55548 13.1482
-2.83012 1.97773 8.31855
-2.78211 1.93603 8.34591
-0.288736 3.65205 7.28289
1.31259 -2.18793 8.28137
-2.30139 1.75684 8.46436
-1.57319 2.34346 8.09491
3.52627 2.01998 8.52884
-1.53907 -1.61277 7.85156
-0.931852 3.28311 7.46555
0.424107 -1.33668 7.68393
2.26441 3.43645 7.37016
1.36004 3.34763 7.53883
1.30454 3.31796 7.52034
-1.64196 -1.01819 7.4339
3.05596 1.76906 8.62728
2.25616 1.69352 8.71023
0.623138 1.57212 8.60321
0.193441 -0.848195 7.37609
2.42696 3.26517 7.52099
-3.29239 1.26553 8.83743
0.0454597 -0.502074 7.05635
4.43154 -0.498711 10.3125
-0.749531 2.8954 7.71643
4.45591 -0.349 10.1815
-0.24907 1.30334 8.73571
4.95815 -0.234821 10.1693
-1.09986 -0.345964 7.01936
-0.677579 2.82876 7.79112
-0.728772 2.8153 7.76811
-0.361219 1.29406 8.81914
1.24425 -0.145023 6.79813
3.78845 1.49524 8.90529
0.47504 1.28963 8.85614
1.39084 0.0656569 6.68839
2.82337 1.36686 8.95897
3.61011 1.35961 9.00041
-0.51916 2.77849 7.85773
1.58184 0.297427 6.59923
1.17631 2.84808 7.72359
-1.65736 2.64414 7.81783
-0.549553 2.70628 7.84274
-2.25127 2.48185 7.88116
0.755712 2.77265 7.81086
-2.23722 2.54653 7.87797
3.98966 0.971229 9.27476
-2.47488 0.638551 9.28996
4.00658 1.09 9.24051
4.11034 1.10968 9.18721
4.21147 1.16846 9.1689
4.52529 -0.584316 10.448
1.27435 -0.209673 6.83903
1.98778 2.92333 7.66206
-2.5843 1.90327 8.35242
3.478 -4.93043 12.5944
-2.46302 1.79954 8.40982
2.92316 2.35164 8.23562
2.94513 2.36492 8.17904
-1.52197 -3.22893 9.01576
0.670737 1.78783 8.41823
-1.03985 1.63006 8.45115
3.44544 1.93785 8.57857
0.866875 2.26775 8.14079
-1.84762 3.43326 7.31487
3.13669 1.84986 8.58712
0.490734 1.61904 8.54297
0.116408 2.23109 8.12442
0.211134 3.46309 7.35566
0.617836 1.57158 8.58893
2.83044 2.45345 8.14708
2.79549 3.51982 7.32135
2.78889 3.48636 7.39223
-2.07065 2.1543 8.17712
2.25654 3.42657 7.35889
-0.783784 1.37613 8.79252
1.36929 3.34911 7.52924
1.43067 3.33109 7.52351
1.30278 3.31357 7.50714
2.8898 3.38474 7.45118
-0.780367 1.29571 8.74075
-0.244218 1.30721 8.75018
-0.358524 1.28324 8.77608
-1.83208 2.96647 7.59696
0.185732 -0.834539 7.27629
-1.40073 2.95171 7.61735
-0.163789 1.18083 8.82951
0.364437 -0.659826 7.18361
0.102064 1.15444 8.86435
2.78887 1.30791 8.92142
-0.0274393 -0.516899 7.06382
-1.85859 2.25991 8.13342
-1.24449 -0.495968 7.06814
0.602221 2.89427 7.82754
1.19464 -0.233653 6.85671
1.18786 2.85709 7.76809
0.456998 2.47413 7.98947
-2.13006 0.819363 9.13247
0.769863 2.76628 7.77812
-3.17354 -0.0516231 9.72896
2.37965 2.24582 8.32009
1.60913 2.57773 7.98306
3.57852 -4.87797 12.4656
1.58692 0.1406 6.64929
1.33953 2.16581 8.22678
1.99005 2.92518 7.67988
0.918178 2.87622 7.70667
1.15702 2.90462 7.74667
2.82915 3.27309 7.52699
2.84893 3.38059 7.45579
4.73139 -4.52125 13.0119
-1.74559 3.61098 7.20466
-2.3822 2.20229 8.14466
-1.25753 -5.40659 10.3754
2.84239 2.43123 8.25154
-0.242098 1.2978 8.72044
1.65537 0.186196 6.5861
2.0315 -0.131369 6.75342
1.11378 -0.242926 6.90514
-0.706809 -5.57406 10.2426
0.358468 -1.09939 7.52358
-1.64983 -1.01867 7.43952
0.281423 -0.879905 7.36682
-1.26964 -0.89795 7.36062
0.0454121 3.41626 7.42842
-0.942118 3.27698 7.42728
1.33041 -3.12531 8.98411
2.27068 3.4649 7.37779
-1.10454 -0.354559 7.02121
0.368884 3.18137 7.5963
1.32708 0.0427083 6.73125
1.40376 0.0684133 6.68876
-1.1014 3.06817 7.60559
-1.31231 2.96587 7.58804
3.92612 0.705822 9.5177
3.93373 0.917936 9.35855
-2.45677 0.629859 9.21347
3.90936 1.02396 9.26319
1.78822 3.01871 7.6315
0.552647 2.96092 7.74066
3.59023 -4.88127 12.4873
0.480704 1.27741 8.83465
0.912726 2.89713 7.74838
-0.689239 1.32665 8.70299
0.542627 1.46802 8.71268
1.96053 1.72415 8.68755
0.51494 1.66242 8.60269
2.7016 2.94599 7.70656
2.71939 2.90824 7.74152
-0.975735 1.6799 8.50333
-0.201754 1.8487 8.43968
1.67661 2.77851 7.87639
-0.74909 2.05707 8.33722
1.33611 2.18434 8.27496
0.362627 2.48657 8.00543
-1.49716 2.40528 8.03423
2.77912 2.67964 7.96008
-1.27952 -5.38594 10.2162
-0.832599 3.6206 7.21872
-0.277678 3.55675 7.25969
-1.37959 2.91171 7.65238
2.6926 2.89766 7.86735
-0.728202 1.84273 8.33228
-0.142221 1.85482 8.49946
-0.855733 1.74284 8.52218
3.25794 1.92745 8.53287
0.507263 1.65491 8.57778
1.95674 1.69507 8.6573
0.620631 1.57266 8.63314
-1.89322 1.38469 8.69467
-0.265623 1.30685 8.80499
2.61948 1.4487 8.80277
-0.711534 -5.53058 10.1215
0.0284495 3.42798 7.46636
3.60198 -4.92364 12.5939
-0.725556 3.06254 7.63188
-0.706786 1.33981 8.76033
-3.94556 -3.75746 11.2555
2.79113 2.7717 7.92439
1.84226 1.75853 8.52379
-0.0272122 -1.46031 7.75238
2.11384 1.93198 8.43687
-0.825702 3.41015 7.35284
0.432996 3.33704 7.43294
2.84137 3.37522 7.4475
1.94458 3.16102 7.5142
-0.975269 2.77631 7.75554
-0.929729 -1.44681 7.66028
1.44885 2.96847 7.74229
-0.647295 3.1845 7.43473
2.22686 -0.7247 7.18743
2.39019 2.23551 8.49142
1.78096 -1.3338 7.62446
0.434339 -1.33826 7.64884
4.10168 -4.50996 12.9836
0.917565 -1.26859 7.59497
2.11026 -1.46869 7.7403
0.570871 2.31136 8.22221
1.65656 0.245664 6.57962
2.16208 -0.280533 6.87259
1.81683 0.20198 6.54101
3.51056 1.23878 9.22799
-1.62997 2.36868 8.18017
1.68215 2.40209 8.2585
1.76795 -0.0116978 6.68292
2.17474 1.64115 8.80641
2.53989 -2.75803 8.70704
2.33102 -0.513236 7.05252
0.120106 -1.19462 7.54536
3.55955 2.06294 8.62934
2.96937 2.09722 8.54392
1.6886 0.181973 6.57256
1.15676 -0.217987 6.86777
3.59536 1.83597 8.75902
1.72049 -1.88896 8.073
2.22822 -0.203264 6.83706
1.0927 -0.230547 6.86694
1.2219 -0.18403 6.82438
1.72331 0.213406 6.56977
1.83723 0.177129 6.61316
1.57279 -1.97786 8.10386
1.92823 -1.99109 8.13243
4.06646 -4.5245 13.0828
2.27881 -0.165073 6.81639
-0.350452 1.32209 8.84258
1.95418 0.0403364 6.65726
1.59065 0.0431155 6.64231
1.65918 0.027106 6.6698
2.11829 -0.560921 7.05756
3.83943 1.713 8.89956
1.89311 -0.115207 6.73608
1.58643 0.307828 6.60288
2.02613 -0.106013 6.75548
-1.70912 -0.958368 7.3578
1.6535 -0.000754022 6.67476
1.91855 -0.382597 6.92238
-0.742069 1.34826 8.84783
-0.777353 2.93653 7.82316
2.21172 -0.0907519 6.78312
2.08762 -0.0157635 6.72896
1.75452 0.11617 6.58518
1.60325 0.350446 6.58475
1.75077 0.138352 6.59541
1.69793 0.130136 6.60543
0.0959071 2.27563 8.22611
3.07415 2.03625 8.66047
1.5683 -0.0524006 6.70025
1.90712 -0.819108 7.25876
0.113611 2.27959 8.20068
2.50075 1.3825 9.00665
5.41273 -4.64158 13.1125
4.33075 -4.07202 12.8145
1.74328 0.0080837 6.67006
2.97009 1.53343 8.99745
2.43453 2.40438 8.34177
1.97488 -0.792335 7.22893
2.21658 -0.141981 6.77784
-1.95929 3.67201 7.30525
4.38125 -4.57987 13.1182
4.1332 1.18244 9.34595
-0.541362 2.70229 7.97335
1.12374 -3.9442 9.53364
3.44004 2.36971 8.47284
4.28487 -2.29695 11.5405
4.38384 -2.33685 11.5469
1.79228 2.4895 8.16522
1.76061 1.79251 8.67462
2.19009 -0.645861 7.14224
-1.43486 2.94381 7.78207
3.75601 1.49701 9.05517
0.938853 -3.70527 9.38815
1.36911 -0.0175923 6.741
3.84486 -4.98001 12.4579
1.78996 4.0066 7.1862
1.89529 -1.73896 7.92462
2.54952 2.66291 8.15705
-0.40601 -1.7474 7.93837
2.26603 -0.408591 6.97047
2.20547 -1.34202 7.6535
2.5645 1.52713 8.93821
-2.46577 1.48608 8.75312
-0.783682 -0.468094 7.01173
2.11402 -0.0303271 6.70233
4.85661 -0.200462 10.3278
3.90863 0.651123 9.70468
2.29656 -2.23073 8.29204
3.60853 1.79048 8.8588
1.97256 3.94444 7.24818
-0.182267 -0.961287 7.36703
2.23127 -5.6326 10.7018
1.6029 -0.866919 7.28662
1.28755 4.25552 7.11643
0.178555 -0.907962 7.38143
1.79453 -1.7513 7.92299
-0.461442 4.039 7.09686
-0.497164 4.0516 7.11145
1.15333 -1.65173 7.88825
3.92555 0.941264 9.45239
3.17947 0.958395 9.39404
0.175152 -0.815558 7.27504
0.93261 -3.70643 9.37817
4.14061 1.18744 9.35093
-3.09627 1.02961 9.15938
1.69807 0.321785 6.60729
3.94949 1.11002 9.39989
0.501591 -0.731323 7.21796
1.7366 0.274757 6.65877
1.57418 0.22329 6.60579
3.11965 3.58572 7.52112
1.84261 0.125099 6.61885
1.49877 -2.22497 8.31669
2.05862 -0.00717473 6.70043
-0.72959 1.34685 8.81688
1.42924 3.42694 7.62075
2.84378 1.40749 9.0521
1.92338 0.233734 6.64084
-0.895454 -0.641538 7.14105
1.98575 -0.0264401 6.68349
0.850027 3.24324 7.66407
-0.249443 3.23658 7.67609
-1.95659 1.44168 8.8216
1.53011 -2.02733 8.15275
4.46365 -4.6046 13.1731
5.34159 -4.59033 13.1234
1.97618 -2.9284 8.81163
2.95149 1.52551 8.92946
1.81367 0.188717 6.57627
-0.155556 -1.57314 7.81735
4.40414 -4.51203 13.0483
-1.89055 3.02732 7.67546
-1.88134 3.02223 7.71422
-2.52668 1.55731 8.78889
1.72441 -1.43873 7.70006
1.83779 0.171363 6.54528
2.94526 2.9688 7.9054
0.62196 1.60303 8.74904
1.94675 -0.0847666 6.749
2.09371 2.87786 7.87618
2.17174 1.64121 8.78008
1.66206 2.83197 7.89946
-2.33868 1.80072 8.51778
2.07525 -0.101465 6.75466
3.85227 1.72674 8.90769
-3.27442 1.67373 8.62996
-1.69311 2.66318 7.92686
1.53401 -0.105774 6.74739
-1.72798 2.65747 7.94585
-0.0331466 -0.497162 7.05123
-1.11561 2.65926 7.99394
2.13058 -1.15668 7.5014
2.54322 2.64588 8.10978
1.39682 -2.24721 8.27475
3.60751 1.83173 8.83254
2.41027 -0.148733 6.8438
2.3525 2.53599 8.11978
1.1922 -0.145822 6.82888
3.08497 1.83734 8.77166
1.29217 2.28321 8.39257
-1.98874 -1.2035 7.56904
-0.717099 -0.413572 6.99408
2.0796 -0.170762 6.76954
2.2082 -0.186994 6.79864
-1.63917 2.37539 8.20059
2.87419 2.41322 8.35697
-2.44054 1.89702 8.46328
0.0447718 2.34363 8.16432
3.99653 1.98588 8.83524
2.58169 -2.39112 8.44338
0.460969 1.93544 8.4302
1.43647 2.32616 8.30357
3.45076 2.35839 8.47835
1.45505 1.98382 8.52839
2.35604 -2.64436 8.6199
1.78583 -1.33167 7.635
2.38839 -2.61043 8.61839
0.443166 -1.31892 7.61845
1.64561 2.78071 7.86858
2.99048 2.11605 8.59651
1.11359 -0.239994 6.86785
3.17033 2.13333 8.6136
3.20366 2.20379 8.58618
3.96986 -4.50747 12.9292
2.06767 2.14505 8.44659
3.39162 0.915303 9.45882
-0.820774 3.50158 7.43982
3.82469 -4.94586 12.354
4.70696 -4.20427 12.8932
1.60875 3.95649 7.22817
4.77279 -4.5151 13.0738
2.85115 2.53189 8.26006
3.82559 0.145888 10.0282
-0.123633 -0.584281 7.10275
3.15728 2.87663 8.016
1.81651 3.07204 7.76401
3.44072 2.33752 8.43819
1.19781 -3.97839 9.56801
1.61493 0.304722 6.56044
1.77131 0.303905 6.55705
0.0761548 2.3316 8.197
1.00226 -3.73649 9.38475
0.931332 -3.70893 9.36519
0.466765 2.21442 8.30052
-2.62671 2.20402 8.27447
0.849682 -1.18635 7.5237
1.90054 2.19858 8.37544
1.83892 0.177636 6.5857
3.65415 0.261367 9.84849
0.186963 -0.979691 7.38224
-0.192024 -0.959998 7.39078
-1.30457 -1.2571 7.57068
2.26199 3.53705 7.46277
-0.113773 -3.3482 9.07814
1.69323 0.126789 6.59709
-0.756377 3.10911 7.71704
1.50015 -2.22048 8.28803
4.46434 -4.6037 13.1595
4.03333 -4.54976 13.0595
3.04315 3.00111 7.90921
4.43115 -4.52971 13.1206
3.82077 0.847406 9.5242
5.35237 -4.48235 13.0887
0.732241 -2.9924 8.84632
0.442211 2.47593 8.11102
2.86777 2.53576 8.29109
3.45168 1.95994 8.62028
-1.20797 -2.88276 8.74443
3.39238 0.906666 9.41676
-4.68145 -3.72057 11.3229
2.35135 2.52812 8.10648
-0.49058 4.04793 7.09156
3.61011 1.8424 8.77862
3.08242 1.83128 8.75174
-2.69903 1.78235 8.5361
1.15849 -0.267278 6.88066
-0.528355 -0.442845 7.00257
-1.83272 3.6503 7.31974
0.536003 -0.834816 7.28818
3.21661 1.75119 8.78903
2.3879 -2.60605 8.60198
-2.29986 2.60782 8.00666
2.36537 -0.234521 6.84417
1.91049 -0.227326 6.8381
0.846928 3.2459 7.67859
1.16679 -0.2149 6.81174
1.44462 0.0431908 6.67533
-0.167304 -1.58275 7.84639
4.02477 1.03561 9.43309
0.173847 -0.816942 7.31288
1.6028 3.92991 7.18789
-3.29559 -0.272942 10.0087
1.48371 3.38318 7.61708
3.43696 3.39843 7.64996
-1.79525 3.67502 7.3029
1.3518 3.37792 7.59598
2.65051 1.59457 8.89394
-0.0850122 -1.64237 7.83707
0.912911 -0.589096 7.14141
2.17819 -0.159628 6.80403
-1.70005 2.70587 7.92848
1.91916 0.0152147 6.65077
-2.03975 3.69122 7.27096
2.66836 1.54135 8.91051
-1.1939 -0.615594 7.1226
2.92087 2.9287 7.96235
1.98444 -2.11729 8.22528
2.18118 3.74456 7.34575
-1.9643 1.44221 8.8283
1.53224 -2.02815 8.1264
0.54437 -0.764733 7.25237
1.70371 -1.99233 8.12759
1.72481 -0.0963217 6.74825
0.412034 -0.683192 7.2195
-0.356836 1.30896 8.79477
3.48911 1.35481 9.14976
1.79447 -0.0327028 6.6781
3.41123 1.29667 9.16693
1.71293 -0.031684 6.63342
1.23324 -0.0584781 6.78043
3.52634 1.24924 9.28164
3.1722 2.87849 8.02023
-3.2483 -0.0434771 9.8684
3.82364 0.145349 10.0169
2.95612 1.52771 8.96287
1.72419 -1.4394 7.67775
-0.676563 -2.15575 8.24374
-0.410842 -0.310555 6.97714
1.16798 -0.258318 6.85943
2.94393 2.94215 7.83195
-2.07935 -3.70104 9.31502
2.14537 -0.175832 6.77846
2.27382 -0.168847 6.80161
1.20806 -0.154544 6.80144
0.718109 -0.651884 7.16424
0.667332 -0.681909 7.1828
1.27813 4.22101 7.09908
2.21269 -0.0880992 6.79578
1.94694 -0.034691 6.69207
1.81313 -0.00947793 6.68652
3.6337 1.79312 8.83721
1.29501 3.20508 7.7116
0.648416 3.26437 7.65188
1.45219 3.36989 7.59536
-1.51394 -3.19158 8.98198
1.16916 -1.62 7.8352
1.12208 -1.67985 7.90689
0.0416977 2.39555 8.12386
1.33343 4.06732 7.18741
-2.19151 1.61836 8.5443
-1.02804 2.33864 8.18861
3.43158 1.3072 9.23301
1.34151 2.24389 8.4234
2.57087 1.52245 8.9206
2.18443 3.94948 7.25215
-2.49992 1.96276 8.43194
1.75708 -1.86558 8.06976
0.296137 -0.878211 7.30524
-2.79492 1.03936 9.07543
3.08554 2.0504 8.69017
0.431733 1.64025 8.57667
-2.97848 1.54929 8.70242
-0.504086 -0.725281 7.22829
-0.466134 3.76251 7.29599
-2.52693 2.17751 8.27082
2.15259 2.0461 8.55162
0.313173 -1.0958 7.41652
-0.836124 3.68157 7.2955
-0.866176 3.68018 7.23121
0.974238 3.31124 7.60444
-1.38471 3.6724 7.26949
4.50545 -0.333562 10.334
1.51736 0.311721 6.60862
2.95611 3.81335 7.31323
2.80371 1.33077 9.04347
3.4633 1.97279 8.65593
1.71987 2.81041 7.92707
-2.5326 1.83509 8.54127
1.89878 -2.24037 8.29134
-0.782437 -0.504748 7.02653
3.92122 0.654374 9.73499
-0.597028 2.29433 8.18839
2.86192 2.53386 8.28039
1.0688 -0.293752 6.85454
2.59118 3.63792 7.36455
-0.151533 -1.53875 7.82006
-0.376031 2.32254 8.19816
-0.271531 3.60735 7.38306
3.89008 0.850893 9.52965
-3.35671 0.836572 9.34886
3.18169 2.14917 8.65493
-0.50946 1.10148 8.72358
3.06877 1.89614 8.73631
4.03075 1.03293 9.45599
4.4167 -4.57373 13.04
4.04593 1.13159 9.3392
1.46756 -0.383079 6.92533
-1.13793 -0.382149 7.01397
3.19116 1.90603 8.76535
2.7937 3.53793 7.4726
1.27754 -0.169612 6.78493
2.8289 2.43567 8.31813
4.06116 1.05673 9.41155
-3.09225 1.01826 9.12845
0.505899 2.53811 8.02535
-3.92594 -3.66249 11.4324
1.90243 2.20741 8.40951
0.455672 1.91965 8.41185
-1.46934 -2.10737 8.20907
4.15289 1.19994 9.31125
0.819573 -0.573378 7.14879
1.57458 0.219751 6.59343
-1.18494 -5.30295 10.2063
-1.09332 -2.80806 8.73831
1.61309 -2.1815 8.22124
-0.707193 -1.41774 7.71512
-0.946834 -1.42201 7.72509
0.979522 -0.502228 7.00869
-2.54788 2.6866 7.92227
4.72223 -4.4958 12.9636
1.2673 -3.39314 9.14967
2.14853 2.44616 8.24867
0.132367 2.19408 8.24546
0.734055 1.7346 8.60994
0.889137 -3.80366 9.39212
0.137232 -0.903654 7.3371
0.427249 -1.33898 7.6616
-1.55776 4.14571 6.97513
-0.491545 4.06131 7.10963
0.327286 -3.35513 9.08157
2.16872 3.93354 7.24039
2.16603 3.70009 7.33332
-0.364999 3.6673 7.33968
4.43308 -4.60831 13.1388
2.2581 3.53216 7.47746
2.38652 3.10102 7.72992
1.78971 3.06005 7.76451
-4.63106 -3.59609 11.2551
3.17037 2.8274 8.10175
1.44162 2.62725 7.97447
2.53711 2.63529 8.15422
0.439793 2.48746 8.01968
1.59227 0.188911 6.59066
2.83508 2.44832 8.34849
-0.247198 -2.39351 8.40487
1.56622 0.00355082 6.65987
-2.91634 2.03002 8.47057
3.55558 2.07513 8.68756
2.14797 2.04285 8.57729
-2.0353 1.46533 8.81499
-2.87073 1.98621 8.50258
3.50631 2.00799 8.70179
3.15643 1.89625 8.73016
1.7022 -2.0062 8.19506
3.12665 1.81119 8.70248
1.04961 1.78422 8.59423
0.910582 1.77024 8.67986
-2.48139 1.50049 8.69485
2.6528 1.512 8.95175
-1.48605 -1.63028 7.81184
4.02845 1.11253 9.33681
-2.8659 1.05424 9.06596
4.01941 1.00185 9.40695
-2.97927 0.885445 9.16846
1.59585 0.567444 6.78174
3.92859 0.682721 9.58459
1.74985 0.305304 6.59226
1.68072 0.261704 6.60157
4.10505 0.274139 9.95789
4.06162 1.06808 9.4581
1.30557 0.0467515 6.72761
-2.45097 2.25232 8.2759
1.9812 -0.0356716 6.69534
1.20599 -0.155527 6.81427
2.28095 -0.21743 6.8569
1.19226 -0.235102 6.82887
-0.104134 -0.949676 7.41933
-1.23097 -0.490314 7.05442
0.201048 -0.84181 7.35112
0.117451 -0.533616 7.08187
3.99208 0.615525 9.78663
0.856115 -0.607913 7.08935
-0.890401 -0.648108 7.15576
0.705985 -0.660577 7.13238
0.460156 -0.68097 7.16518
1.98793 2.99551 7.81367
2.43277 3.31718 7.61632
1.27846 -0.205213 6.81619
-0.36169 3.74255 7.29377
3.6481 1.41431 9.20131
-1.20269 -5.32603 10.2064
0.391266 -0.614869 7.10552
-0.501269 4.05017 7.07492
0.0884088 1.16843 8.92985
-1.58144 -3.31103 9.03029
3.5481 2.06681 8.66958
-2.81493 1.96601 8.39068
3.50408 1.98747 8.61647
-0.75118 1.86566 8.40411
-2.44069 1.85408 8.46536
-2.35245 1.75683 8.54246
0.101326 2.26455 8.19773
0.855033 2.30093 8.22891
0.503623 1.61249 8.48308
2.40965 1.63814 8.80265
2.97178 2.45438 8.39107
-0.717377 1.33936 8.80413
-0.373431 1.29697 8.83241
-4.68846 -3.63829 11.3528
-0.190477 1.19698 8.93337
-3.06957 0.988233 9.06514
-2.10321 0.798121 9.21333
3.66346 0.391573 9.80907
0.861443 -2.39098 8.41725
1.67179 0.191578 6.6176
3.15438 2.80815 8.07643
1.52581 -2.27526 8.32582
1.52451 -2.18161 8.20868
1.35009 -0.0923898 6.73408
-1.47732 -2.12739 8.20742
1.52514 -1.96348 8.10202
2.17253 -0.305456 6.84435
1.74996 2.98211 7.82158
2.09985 3.00808 7.83453
-1.90137 3.02566 7.73332
3.11757 3.53341 7.44958
0.192947 -0.831194 7.24935
0.157506 -0.914593 7.32863
0.0146477 3.47796 7.545
-2.49876 0.637545 9.33565
-3.19093 0.82164 9.21564
-0.78766 1.38317 8.8072
-1.30946 4.05088 7.05317
1.79013 -1.50385 7.70332
3.23902 1.86606 8.68907
-1.90165 3.49427 7.41978
1.56425 -0.0320033 6.74301
-0.51802 2.7832 7.85765
0.189939 3.5099 7.44251
1.18268 -1.58097 7.79235
2.80173 -2.39952 8.51479
2.66982 3.6991 7.38923
2.57172 3.50949 7.43864
3.44538 1.93796 8.57959
0.85437 -0.608331 7.09927
1.77246 2.12785 8.4114
-0.226636 3.95811 7.11146
-0.089694 -0.522117 7.06566
-1.22045 -0.499072 7.01473
-1.46091 3.01192 7.75198
0.669397 3.02343 7.8372
-2.63554 1.93686 8.44886
-0.377904 -0.368598 6.96787
-1.68985 -1.95142 8.09606
1.01915 3.63018 7.42185
-1.07877 1.65343 8.55748
-1.08328 -2.73837 8.65779
2.59945 3.64938 7.40834
0.592485 2.92303 7.88514
-3.22568 -0.0518265 9.82456
-0.783562 1.30267 8.75428
-1.24404 -2.76638 8.67198
1.58822 0.13871 6.62851
1.70366 2.78155 7.88861
3.53196 1.23959 9.27328
1.47049 3.93711 7.25015
1.64914 3.78194 7.33244
2.17581 3.71346 7.33329
-1.59924 -3.35583 9.14003
2.55517 3.68544 7.37278
-0.233358 3.68979 7.39143
-0.301941 3.6294 7.40096
-3.91886 -3.74398 11.2039
-1.22876 -2.91294 8.74604
1.4008 3.46858 7.59801
