0.179307 -0.863515 7.60787
-2.00338 1.47771 9.13505
-2.8617 1.99189 8.41284
-1.4594 3.08886 8.04161
1.17185 3.2502 7.75608
-2.54158 1.50172 9.07928
2.18363 3.06138 8.01182
0.80469 2.93495 8.15706
-3.26539 0.967571 9.58204
0.110561 1.20589 9.06673
0.305885 -0.953852 7.88409
1.65514 -4.76255 11.2433
2.059 1.64283 9.01155
-1.09595 -0.229516 7.48115
-1.37302 3.02967 7.73424
1.71652 -2.53194 9.14693
0.597535 2.95243 7.89339
0.503161 1.69555 8.74344
0.950302 -0.606976 7.56691
1.30801 -0.158557 7.05632
-2.43776 1.82884 8.83033
-3.53816 -0.84888 10.9798
-1.63565 -3.61356 9.88428
-2.49099 1.49739 8.67103
-0.59421 2.81985 7.86949
1.54112 2.60735 7.82953
-1.28041 -3.11404 9.48994
1.61576 3.69755 7.14724
-3.36358 1.79445 8.97958
0.380056 -1.14563 8.16713
0.0945479 2.26145 8.07259
2.8022 1.557 9.30989
-1.04222 2.36357 8.36249
0.0941829 -0.844233 7.68342
-3.09112 -0.527773 10.5964
1.00095 1.85581 9.03691
-0.744498 1.39346 8.99877
2.64083 1.45077 9.48541
-2.83095 1.95881 8.80577
0.0404333 -1.45835 8.19334
2.72082 2.96369 7.8133
-3.46828 0.873281 9.62629
4.79681 1.18434 9.57251
-1.75187 2.81138 8.15671
-2.61479 2.75433 8.12783
1.82728 1.88049 8.94307
0.757295 3.03022 8.07298
4.0189 0.890034 9.8866
2.20468 2.96611 8.1457
0.146523 2.29397 8.53756
1.95409 0.222602 6.88043
-3.92837 1.07358 9.3952
-0.365608 1.29319 9.20008
2.05498 0.049609 6.97338
-2.0554 1.24517 9.26677
1.85909 -3.86791 9.92135
2.08656 -0.0206456 6.99793
1.41718 -0.072037 7.0378
-0.361777 1.38608 9.14737
2.27742 -0.163029 7.06444
1.40865 2.31681 8.61605
0.865935 3.40011 7.89366
0.681809 3.37636 7.83188
4.02219 1.7789 9.18247
-1.30386 -0.504796 7.3696
3.36739 1.75344 9.17263
0.743592 1.59358 9.05568
0.117297 -0.53742 7.40882
0.629174 1.6243 9.03318
0.0416506 -1.50038 8.17526
0.705952 -0.707567 7.56022
1.76876 0.163489 6.86292
3.71653 1.86765 8.96592
-0.972843 -1.05753 7.7671
-0.449121 2.55417 8.36118
0.192411 -0.964679 7.77682
-1.09981 -1.13962 7.83543
-2.54422 1.54819 9.03102
0.721293 1.71144 8.95741
1.43239 3.76282 7.65935
0.232204 -0.878011 7.7062
3.74297 2.4187 8.67296
1.76924 1.86814 8.91593
-1.41172 1.6805 8.95487
0.462387 -1.39027 8.02537
1.03965 1.89527 8.81799
-4.21926 -2.976 11.9819
-2.66869 -3.76067 10.6365
2.08041 -2.00362 8.52619
1.22366 -0.224945 7.12131
3.62896 2.10714 8.72212
3.67419 2.15461 8.79902
3.11448 2.18165 8.82878
4.23643 2.28265 8.82876
-2.54007 1.95191 8.71723
3.72177 2.38255 8.72436
1.35295 2.33314 8.59035
4.118 2.71263 8.36252
-4.20526 -3.92902 12.2495
-2.13077 -3.80085 9.87136
-0.60867 2.83086 8.18294
-2.45127 1.92611 8.77701
-0.686235 3.39673 7.80409
-2.16236 2.51054 8.33499
0.48222 -0.699468 7.53942
-1.46249 3.03659 7.98432
0.793936 1.81455 8.88635
-1.64156 3.09456 7.98319
0.0912728 2.45322 8.45116
-3.65184 -4.13515 12.124
1.80818 2.89447 8.13005
1.98154 -0.114411 7.00509
0.875008 3.52428 7.80522
2.45719 -0.540489 7.38455
0.43006 2.62442 8.32692
3.38446 1.76409 9.20665
-0.430744 -0.317905 7.26786
0.239445 1.50838 9.07782
-0.256684 1.45178 9.12881
-0.751476 1.41476 9.19843
-2.54503 1.5512 9.01449
4.16321 2.00225 9.03688
-2.56754 1.9133 8.79462
0.794717 1.80402 8.84156
4.15576 2.19241 8.90997
-0.364978 1.2908 9.18356
-3.9124 1.07324 9.37727
-3.07133 1.5988 8.9646
-0.676496 3.35571 7.75102
1.49898 3.52639 7.781
0.681221 3.38391 7.84711
0.10821 -2.88827 9.18105
-4.53199 -2.00647 11.5866
1.58309 2.00519 8.78207
-1.09326 -1.13306 7.80576
-3.43805 0.862366 9.5565
-3.3891 1.73707 8.9057
0.191456 -0.963576 7.7892
-1.8044 -1.03144 7.75917
3.11148 2.18289 8.79343
0.701201 -0.709085 7.55066
-2.11548 -3.77711 9.82536
3.91206 2.30747 8.82178
4.2425 1.09312 9.71817
-2.44248 1.91367 8.82378
4.93934 0.930106 9.8106
4.07794 2.7091 8.36769
5.87355 -5.10755 14.017
2.39463 -0.176704 7.14268
2.29612 -0.164427 7.12471
-2.56172 1.94972 8.70058
3.59343 2.43329 8.71517
2.12547 -0.104782 7.02883
2.01997 0.0171274 6.9502
1.40969 2.3225 8.63644
4.83025 -5.01179 14.1011
-2.51156 2.11716 8.54341
-2.19755 3.80652 7.39394
1.64937 0.323286 6.8464
1.99152 2.30284 8.63446
1.96165 4.11573 7.33451
2.4772 2.29533 8.66929
-2.83177 1.92164 8.74968
1.02264 -0.257464 7.23278
4.20647 0.988837 9.82603
3.32535 2.27585 8.79783
-1.27961 1.26343 9.22374
0.49587 2.0202 8.71231
-0.93596 -0.664819 7.44743
0.96222 -0.579941 7.46727
0.90205 -0.62888 7.45371
-1.33594 -2.9919 9.26832
3.29059 2.19793 8.81551
3.05948 3.04627 8.05001
3.15349 2.17278 8.80695
1.20925 -1.7353 8.23706
2.13521 1.87163 8.92321
3.37622 1.20738 9.55082
3.16196 3.07692 8.05965
-3.32876 0.88372 9.54622
-1.7364 2.73971 8.12438
-2.08526 1.27493 9.26757
-2.60584 2.75402 8.10943
0.486966 1.35437 9.18421
-4.16311 -3.88985 12.1055
-1.76636 2.7324 8.11653
0.588797 3.10222 7.99896
4.29084 2.16812 8.83204
2.96188 2.53484 8.61289
-1.45999 3.03619 7.97221
-0.28534 -2.84588 9.14202
-2.24015 -1.6002 8.21189
-2.78938 1.73612 8.92778
-1.09926 1.81529 8.83321
-0.247078 3.32595 7.87257
-4.18209 -2.95278 11.866
-1.50694 1.7434 8.88801
2.61175 -2.22525 8.64453
2.71649 -2.27388 8.72661
-1.13785 -4.46277 10.3469
-1.40253 1.68232 8.91023
1.87175 0.227525 6.84233
2.8398 3.6607 7.55167
-0.882107 1.76034 8.92274
1.89483 0.271135 6.91635
0.985719 -4.04131 10.0864
1.64726 0.356636 6.87749
-2.60936 1.62544 9.09863
0.120969 -0.957507 7.70167
0.181703 -0.952206 7.69319
-1.85155 -0.988204 7.75426
2.2703 3.85512 7.50015
-1.29935 -0.51262 7.38481
2.26503 -0.295601 7.20226
1.41166 3.48887 7.77632
1.51881 3.48777 7.79186
-0.760767 -0.435472 7.29556
2.48031 -0.23887 7.1236
2.40273 -0.223423 7.14237
5.1992 -0.235529 10.6039
5.30001 -0.222003 10.692
1.23194 -1.72106 8.2825
1.16883 -0.24608 7.16718
-0.788072 3.05083 8.0616
2.32425 -0.16592 7.10566
-1.7423 2.7823 8.11731
-1.73429 2.72571 8.08044
-0.332912 -1.87096 8.35123
1.2633 -0.147281 7.10293
2.08697 -0.0214239 6.97533
1.91101 -0.000504778 7.00844
0.0585555 2.49226 8.38672
1.86149 -3.89078 9.97648
-1.00861 2.41944 8.46503
-2.48868 2.22452 8.54058
4.13661 0.97494 9.78682
-2.99301 1.01742 9.42265
-3.19605 1.05297 9.44362
3.9223 2.37757 8.65881
4.01477 1.77632 9.15206
-1.96524 1.48344 9.14803
3.11222 2.16636 8.75768
-2.04775 1.51963 9.22772
-3.3853 1.72718 8.87827
-3.57231 1.48286 9.08011
4.20345 2.17808 8.90465
4.25311 2.15632 8.82734
-2.58638 1.59983 9.05542
4.11123 2.03308 8.96114
0.111888 -2.94219 9.27059
-2.25332 1.66588 8.77693
2.5951 1.98278 8.93149
1.3894 -0.0964127 7.0668
-0.29994 1.42028 9.15506
0.554955 1.72638 8.88687
2.99113 2.46759 8.56198
-2.22533 2.19916 8.56112
2.95586 2.52703 8.58728
-0.872582 1.87844 8.8519
-2.05484 1.23761 9.25364
-3.66777 -4.14138 12.1098
1.84931 -2.56391 8.9557
-0.530708 1.15969 9.09961
3.63263 1.39155 9.39435
1.04555 -4.08602 10.1413
1.75891 -3.87057 9.88692
-1.63872 -1.70042 8.27781
0.512869 1.7101 8.99482
1.24133 2.99655 8.02146
2.18959 2.96941 8.05299
-1.11403 -0.349908 7.2418
0.734365 1.7036 8.94587
1.88425 2.59579 8.42695
-2.18779 3.78307 7.36647
-2.49256 2.31923 8.4778
1.53101 -0.394537 7.24889
2.6914 1.58223 9.24268
-1.03457 3.56495 7.63103
-3.50565 -0.237548 10.4266
1.18434 2.19556 8.58591
4.72251 -0.367219 10.6718
2.56604 -0.350148 7.21704
2.50002 -0.234645 7.18157
2.27864 -0.155945 7.0762
2.29888 -0.156472 7.02334
1.27147 -0.151155 7.14959
1.42575 -0.0819865 7.0145
-0.897009 3.86021 7.45152
1.31318 0.0534782 7.04199
2.0273 0.245164 6.96704
1.8722 0.254198 6.81459
-0.433009 -1.87239 8.43172
1.65753 0.691194 7.15498
-0.41051 0.720219 8.5179
1.48494 3.51435 7.75942
0.216615 -0.878274 7.7034
-1.84 -0.991231 7.72809
-1.92992 3.12844 7.8829
0.127438 -0.944823 7.67354
0.178055 -0.959336 7.7247
1.36833 3.33343 7.95289
-0.268253 1.36387 9.1538
4.05932 1.80561 9.12075
-0.538637 2.80701 8.1559
1.7406 1.89934 8.93144
3.26911 2.89295 8.19859
3.2012 2.11954 8.8885
-0.867294 1.86495 8.82219
0.42295 2.62015 8.29137
0.0608426 2.49157 8.35076
-1.76069 -3.09356 9.39239
0.875745 2.44248 8.45209
-0.749059 -0.432343 7.29534
-2.43781 2.16741 8.56246
2.95926 2.53455 8.59887
-2.53393 2.1356 8.58669
-4.4889 -1.99463 11.5057
-0.456394 4.13028 7.21801
1.54857 3.41918 7.80682
1.98873 4.08716 7.29487
-3.41946 -0.28982 10.3776
1.6309 -2.30617 8.69355
1.57673 1.99614 8.72771
-0.934399 1.86196 8.90405
1.71036 0.250683 6.85335
-0.978213 1.75806 8.83597
1.23911 -1.7274 8.28741
3.27156 1.95159 8.90467
3.1931 1.95386 8.92677
5.65982 -4.73335 13.6373
-0.677381 3.37621 7.78049
2.03396 1.80151 8.9139
4.21046 1.07671 9.60774
-2.2631 0.884671 9.57123
0.197731 -1.02837 7.74883
1.80716 3.06221 7.92637
-3.23982 0.938424 9.54798
3.6436 1.39757 9.43233
1.40106 -2.22017 8.68158
2.24037 2.10404 8.75298
0.576317 3.07495 7.95037
5.02247 -0.417167 10.5764
-0.173768 -0.996545 7.75428
2.97906 2.45151 8.51261
1.18869 -3.22253 9.50214
1.06009 2.13519 8.71484
2.68516 1.57132 9.21122
0.951251 -4.08288 10.0085
-3.3678 -0.0388059 10.2217
-1.56413 -2.23692 8.62072
4.00531 0.89139 9.8453
1.13038 1.8761 8.91155
1.60648 0.487615 6.95617
-1.57572 -1.72772 8.27602
0.982638 -2.47957 8.8403
0.689397 1.91414 8.83588
2.1936 2.97936 8.07919
1.28512 3.37521 7.82655
0.927948 2.95454 8.08088
0.710524 2.56843 8.29323
-0.44297 2.53413 8.30577
0.749772 1.62145 9.10399
-4.19746 -3.93064 12.1915
-0.134706 -0.949284 7.71369
0.12618 2.37198 8.4793
-1.63344 3.06664 7.92235
-2.56223 2.02749 8.66503
3.2624 1.93515 8.87591
-0.433757 -0.338703 7.23918
-1.20538 -0.397061 7.34633
1.46785 -3.79675 9.8132
0.501785 1.69806 8.94685
-0.839876 3.76686 7.43725
-0.75815 -0.440885 7.33071
2.56845 -0.349942 7.26824
-1.60614 -3.55205 9.71917
-1.0098 1.77195 8.90124
0.655109 1.66269 8.98966
2.30953 -0.101537 7.06447
0.123087 -0.561157 7.41422
3.18287 2.10539 8.87038
2.15932 -0.0198202 6.99684
-2.16367 0.827186 9.50996
-1.96936 1.47159 9.12832
1.35177 3.47092 7.77528
0.382607 -0.693694 7.51422
1.55646 3.43108 7.84993
4.13561 1.10949 9.70506
2.47015 3.20098 7.89076
-0.768899 2.96768 8.10568
-0.359144 -0.924158 7.7138
-2.812 1.90702 8.85786
1.63351 -2.32526 8.73729
-3.34469 0.871844 9.60954
3.97318 1.74654 9.06506
1.23467 3.00287 8.06291
-1.74252 2.77933 8.13677
0.24586 1.51438 9.12466
-1.80402 -1.01146 7.6873
-0.582417 2.82243 8.11186
0.788621 2.91627 8.12991
-0.805623 2.05991 8.75339
-3.25303 0.940855 9.56948
0.172049 -0.962808 7.69354
-0.120507 -0.994825 7.81213
1.63791 2.79763 7.9926
-0.73652 1.39305 9.05572
3.54125 2.41045 8.60723
-3.0999 1.02001 9.44286
4.01999 0.832805 9.66791
3.52924 1.40866 9.2911
-0.407975 -1.85391 8.35831
1.408 2.29798 8.5866
0.47462 2.58976 8.26738
2.98136 2.45556 8.56304
-1.62816 -1.71518 8.26744
0.0604604 2.50516 8.38498
1.61712 0.435377 6.90953
-2.54018 2.1367 8.61615
1.92786 0.261789 6.82853
-0.330064 2.40623 8.40311
3.33358 2.676 8.47201
-2.5289 2.16458 8.46428
1.66317 0.323232 6.88022
-2.88658 1.17497 9.28847
0.111943 2.35564 8.45428
-4.13074 -3.86499 12.1808
0.924023 2.94202 8.07528
0.709133 2.56139 8.30965
1.49754 -2.02909 8.5844
-3.37719 -0.06545 10.2466
1.51458 2.72247 8.20774
2.41928 -0.373928 7.28611
1.46526 0.0756227 6.9851
-0.376595 1.31111 9.20049
1.82914 0.338033 6.85924
1.64156 0.685852 7.13929
-0.854189 3.77134 7.44215
-2.28332 -3.93658 9.94815
-2.12398 1.6917 8.87189
-0.889271 1.83916 8.8462
-2.50892 1.91688 8.67926
-2.62565 -3.95407 10.3245
-2.21046 -1.58148 8.18928
-0.391232 -1.84079 8.32951
1.64132 -2.09994 8.59262
-0.550637 2.81085 8.19407
1.36618 3.29341 7.87479
1.48865 3.49058 7.80508
2.36977 3.61114 7.68168
-1.60868 -3.4253 9.47181
2.84106 3.60816 7.438
1.71348 0.234866 6.8471
1.75488 0.27155 6.86266
0.477492 -0.717241 7.56032
-2.50717 2.11217 8.53554
2.91982 2.50444 8.47458
0.0646614 2.44836 8.4519
1.83024 3.07071 7.97558
0.62578 3.04062 8.13873
1.38097 0.0438052 7.00828
1.77784 0.159023 6.8512
-3.08834 0.898652 9.42981
1.36411 3.48997 7.82124
2.2713 -0.310765 7.16991
-0.00322907 2.41971 8.42699
0.790616 2.87963 8.03545
1.36938 4.13924 7.26865
2.78184 1.57084 9.29386
0.0858035 -2.93767 9.22504
-0.752506 1.39542 9.13305
0.477151 2.60612 8.33577
-0.593274 2.41641 8.41364
-2.18722 2.27283 8.56212
1.42067 -0.09015 6.98038
2.94872 1.38487 9.34991
-2.48627 2.20005 8.52528
-2.19328 2.16385 8.49263
-0.0261106 -0.538388 7.38493
2.52426 1.71694 9.04358
0.123212 -0.556595 7.44689
-0.177836 1.23754 9.14928
3.42126 1.8152 9.27036
3.33929 1.75245 8.96574
-0.803595 2.0307 8.66414
-1.15451 -0.367344 7.35296
4.19393 1.01765 9.68367
-0.28741 3.75424 7.62296
0.931808 -0.578967 7.44051
-1.46898 3.08989 7.89375
3.61632 2.04045 8.93568
1.69702 3.86 7.46676
-0.275384 3.74621 7.46872
-1.9053 3.07219 7.78817
-0.76809 3.2082 7.90286
4.11249 0.954228 9.68336
0.9245 2.93992 8.06009
1.77151 2.869 8.03393
-0.0947857 -1.07277 7.82307
-1.36745 -0.563121 7.39672
0.119648 2.35267 8.47775
-2.68599 2.11752 8.63563
-0.12822 1.96053 8.80505
1.35812 3.29835 7.84683
0.803302 2.9064 8.08533
-2.53227 1.94072 8.81734
-2.10356 1.68465 8.7766
-1.97556 1.46739 9.0992
-3.01147 1.07562 9.44859
3.5773 1.38522 9.4083
1.25067 -0.176031 7.14821
-2.23331 -1.60708 8.26713
-1.03161 1.77476 8.91029
-2.38462 1.63991 8.96099
-0.745626 -6.00891 10.9023
-2.56749 2.01312 8.5828
0.657858 1.67224 8.94407
3.03794 2.45972 8.45001
2.53093 1.72656 9.07957
-0.278817 3.73461 7.55587
2.96049 2.54147 8.54766
0.208385 3.65502 7.68272
-1.25007 -3.05569 9.32986
3.27506 2.61566 8.24035
-3.20887 0.942389 9.43922
0.723914 2.59114 8.43883
4.15589 0.962238 9.79947
1.6525 0.315347 6.83401
0.19261 -1.06976 7.83571
-0.774743 3.01491 7.95295
-0.149526 -0.982907 7.82897
1.37419 0.0482766 6.94619
0.634387 3.01748 8.06166
2.25753 2.08191 8.88644
-0.0985152 -1.05292 7.76858
1.78269 2.89437 8.10913
-3.5919 -0.849794 10.8474
-0.874364 3.7342 7.38684
1.48574 3.47949 7.8189
-2.9838 0.930008 9.45352
-0.903299 1.85283 8.9406
2.93837 2.51267 8.4542
-0.390531 -1.86924 8.367
1.67866 0.00347968 6.81369
2.31986 3.55996 7.55502
1.80823 3.10093 7.86813
0.0597573 2.46954 8.47557
0.638791 1.6434 8.92683
-1.72456 -3.58506 9.66491
-1.4485 3.02916 7.91389
1.19716 3.29521 7.86719
-2.53463 1.48999 9.04419
2.17504 3.04966 7.98906
0.120822 1.22608 9.19101
0.612014 2.98822 7.98429
0.539885 1.7532 9.0311
1.31682 -0.16117 7.09093
1.65794 0.16907 6.95232
-2.42598 1.81361 8.77168
3.39751 2.02134 8.83871
-2.5368 1.53229 8.88707
-1.26952 -3.08091 9.35275
-0.151237 1.96138 8.88148
2.73589 1.52443 9.12896
2.00975 1.75521 8.87485
3.35058 1.76933 9.02081
2.8841 2.87916 8.15721
2.9417 3.43979 7.86618
0.967546 1.82499 8.84314
1.85304 2.25682 8.80699
-2.76388 1.79616 8.81944
4.84243 1.19284 9.65324
1.51338 2.43419 8.59746
4.82159 1.44316 9.47206
4.11367 0.975049 9.75543
1.74482 2.92193 8.16281
3.00996 2.50877 8.61683
4.32008 0.302859 10.3318
2.02949 0.0495415 6.90741
2.43526 -2.43579 8.74249
-0.748498 1.39332 9.12285
0.898803 3.37048 7.91726
5.30799 -0.291512 10.6735
3.37323 1.75652 9.18573
3.23879 3.67774 7.6549
1.19807 2.27141 8.609
3.76607 1.88847 9.06817
5.44971 -0.00922279 10.4978
3.23929 1.92235 9.07377
0.182473 -0.949686 7.67475
0.215262 -1.17231 7.81906
3.76852 2.43412 8.72334
3.21974 2.12357 8.94306
2.00891 4.12103 7.36568
3.10704 2.17898 8.80932
3.74553 2.39815 8.77065
-2.45508 1.92468 8.79025
4.36226 2.19633 8.96223
4.31456 2.19146 8.95149
-0.0993422 -1.72579 8.21407
0.040018 -0.976158 7.6917
4.16449 2.04861 9.08107
-0.545364 2.80381 8.2228
1.99106 2.28989 8.67428
-0.750917 1.40463 9.14223
4.19602 2.02078 9.09645
4.17549 2.05988 9.09213
-0.363734 1.29567 9.16648
3.24837 3.68153 7.63305
1.64254 -2.09873 8.52623
-0.783118 3.08449 8.08912
2.512 -2.75251 9.009
-1.74779 2.82191 8.18906
-3.40174 1.74291 8.94543
0.222623 -0.867505 7.6301
4.1227 0.986178 9.79304
4.01873 0.882691 9.87526
5.24475 -0.190935 10.6551
2.00857 4.13276 7.38562
0.143795 2.28861 8.55076
2.00107 2.30976 8.66873
5.49296 -0.0286425 10.5264
-1.19581 -0.394958 7.28689
4.20064 0.989187 9.814
3.93672 2.31318 8.91177
0.632954 1.62684 9.03718
4.28449 2.31155 8.90629
3.28882 2.96621 8.20762
1.2067 -1.72888 8.22389
0.116468 -0.940387 7.66253
-1.77921 2.75765 8.20237
0.893321 3.37791 7.92286
2.58861 -2.20362 8.58032
2.95012 1.38003 9.36296
1.62209 0.381571 6.83541
1.88172 4.15803 7.39394
0.897536 -2.51163 8.81189
2.65839 2.74384 8.34665
0.93931 4.41131 7.34306
-1.03429 2.40834 8.50708
0.427291 -0.712365 7.50009
-0.738126 -0.421466 7.24453
0.685052 3.3981 7.90384
3.34074 1.98104 9.04504
3.57205 3.49955 7.82143
2.50026 -0.196648 7.12426
-0.773538 2.98219 8.11558
-1.75161 2.80605 8.18614
3.87095 0.414543 10.2154
0.0644023 2.43659 8.4284
-0.281847 1.36771 9.16306
-0.369344 1.37151 9.14733
3.36197 1.80904 9.03104
3.14899 2.18264 8.84697
3.72524 2.15744 8.93099
3.22791 2.12768 8.94769
0.789172 1.80724 8.88086
-3.07823 1.59161 8.97435
3.19058 3.11309 8.13781
0.00939821 -0.980059 7.6677
-1.68314 -0.784761 7.52103
1.90169 3.18227 7.98103
0.636178 1.6109 9.01842
4.85197 1.20083 9.6717
4.7007 -0.515338 10.8339
4.36105 1.25828 9.65501
0.505577 1.6985 8.94042
1.52489 2.7501 8.24913
4.10652 0.670833 10.0233
2.43788 -2.4336 8.7779
2.54255 3.42498 7.81274
5.03662 -0.520247 10.8097
4.73335 -0.358517 10.689
2.41297 -0.185791 7.15748
2.31081 -0.160539 7.05485
1.2205 -0.171249 7.11549
1.2548 -0.153419 7.08869
1.49788 3.52995 7.81836
0.2081 -0.877879 7.63428
1.51975 3.48382 7.82049
0.126966 -0.942182 7.66685
1.36102 3.31886 7.92782
2.78343 1.57363 9.27534
3.794 1.85078 9.07476
-0.538242 2.85632 8.19808
0.793283 1.82326 8.92193
3.29962 2.90695 8.26898
3.70007 2.12726 8.85578
0.475404 2.61988 8.32721
3.15289 2.19406 8.87334
-2.54679 1.95164 8.74967
-2.48263 2.23333 8.54156
-0.748563 -0.432004 7.23393
1.41666 2.31912 8.64277
-0.438864 -0.320402 7.26263
-1.05923 2.42943 8.47051
0.690122 -0.709219 7.48624
2.87304 3.69253 7.6076
0.516152 1.71464 8.96031
3.22114 3.10453 8.17021
0.661306 1.66676 8.99029
-1.756 2.77377 8.21046
-2.18016 0.852446 9.62107
0.194278 -1.01844 7.71101
-3.33317 0.86648 9.58621
1.8371 3.0996 8.02472
3.66969 1.40341 9.4909
-1.2041 -0.393853 7.31136
4.15505 1.10295 9.7346
1.45995 2.75474 8.22376
-1.55895 -2.2229 8.58664
-3.08522 1.60149 9.00195
4.10963 0.676491 10.0339
0.688566 1.91542 8.82806
4.33779 1.25158 9.61465
-1.15413 -0.358742 7.29379
5.24628 -0.242894 10.6485
0.508847 1.71267 8.99138
4.71343 -0.364256 10.6582
0.777471 1.81168 8.9189
-1.29757 -0.514017 7.34203
0.652406 1.65686 8.97199
3.70529 2.13152 8.89047
2.69469 3.74742 7.53322
0.117869 -0.553669 7.35999
2.88524 3.7197 7.66187
2.89713 3.63771 7.64082
2.36586 3.60676 7.66201
1.49377 3.5221 7.85229
1.41965 3.5143 7.84231
-1.93244 3.11495 7.88786
1.35191 3.29384 7.88232
4.25051 1.10162 9.74152
-0.791806 3.0424 8.04124
2.49337 3.22145 7.9538
-0.770003 2.95871 8.09571
0.200798 -0.88428 7.65905
1.48238 -2.3499 8.69265
1.22847 2.99193 8.03726
-1.74631 2.78089 8.1567
-0.581732 2.84457 8.17311
1.66473 2.82871 8.08979
1.80211 0.159883 6.93
3.56908 2.42358 8.66739
-1.72376 -1.06529 7.73529
3.30238 2.91587 8.28424
4.08019 0.848485 9.79052
-0.264769 1.37429 9.11806
2.9703 1.44447 9.34691
-1.61668 -1.69125 8.17495
-2.53565 2.13596 8.60035
0.0659802 2.43644 8.39443
-2.61352 2.14491 8.60811
-0.382845 1.36477 9.20797
1.51452 2.72368 8.20618
-0.3766 1.30997 9.21278
-0.259659 1.37841 9.13348
0.192559 -0.869585 7.55349
2.35752 3.59629 7.65007
-0.379984 1.35323 9.16186
3.29577 1.95193 8.9513
2.9621 2.53318 8.57756
3.28293 2.89032 8.23388
-2.2501 0.865256 9.55914
2.7023 3.73263 7.52602
-1.30616 -0.512941 7.36142
-0.750148 1.40072 9.11371
0.475311 2.60137 8.32178
-1.94858 2.36222 8.42644
-3.3984 -0.290938 10.2972
3.33957 2.65362 8.41008
2.96824 2.58334 8.48398
-2.49239 2.20911 8.55651
-0.0310747 -0.536679 7.33152
2.26401 3.82939 7.51911
-2.94999 2.04406 8.73539
0.37921 -0.686193 7.45506
1.42927 3.51569 7.83195
-1.47586 3.10189 7.94221
0.701651 1.8829 8.77512
3.06674 2.47715 8.57796
1.58504 -0.909256 7.60373
-0.273236 3.76765 7.51243
0.646786 1.6562 8.95669
0.960117 1.84795 8.9782
0.512971 1.70592 8.90858
2.37248 3.63669 7.67018
-0.257435 1.36842 9.10177
2.11884 -0.131022 6.99684
-1.73207 -1.06584 7.74137
-1.03002 1.76998 8.87712
0.538551 1.75186 8.97246
0.568155 1.54772 9.08893
-2.46936 2.1398 8.60849
3.34251 2.65482 8.38816
1.4731 3.57006 7.76691
4.14734 0.974102 9.77568
4.14175 0.750444 9.9458
1.72463 0.200544 6.8224
1.79695 0.0172242 6.9325
1.86924 3.17068 7.93846
1.16124 -0.248704 7.15889
-1.15904 -0.367753 7.2958
1.7541 2.92064 8.19785
-1.38284 3.11632 7.9103
0.374094 -1.14784 7.81352
4.12024 1.08577 9.67393
0.292912 -0.917347 7.64864
-0.878853 3.79848 7.51635
1.88552 0.205484 6.87832
-0.76927 1.94032 8.69293
-0.393458 -1.82534 8.20508
0.152425 -0.959629 7.6087
-0.297083 3.73093 7.5552
1.85212 3.15414 8.01502
0.0613625 2.47576 8.48252
0.649865 1.65757 9.00402
-1.99797 1.46041 9.08989
-0.282199 1.37822 9.19232
-1.45369 3.06007 7.9789
0.799585 2.92699 8.12203
0.530415 1.74381 8.94577
-2.39071 1.62901 8.97868
3.42275 2.03356 8.89388
-0.152934 1.95374 8.86694
-2.76702 1.8115 8.84293
-1.7283 -1.07261 7.72964
2.32622 -0.752787 7.43382
1.19335 2.27899 8.64583
1.72361 0.00321464 6.90564
1.86484 -1.39013 7.89059
4.02184 1.78925 9.19617
1.91474 0.111073 6.83919
1.14028 -0.236951 7.10789
1.72947 0.0322733 6.90046
0.468799 -0.722535 7.43793
2.17669 -0.0123894 6.95912
3.37385 1.75996 9.18365
1.82816 0.12529 6.81223
0.963054 -1.32228 7.86492
2.2097 -1.53125 8.00894
1.6578 0.0489885 6.87242
2.03694 0.0461782 6.88568
1.75707 -0.0245853 6.94815
-0.251103 3.35221 7.92964
1.72593 0.26026 6.807
2.07798 -0.287152 7.08863
2.66777 -2.88281 9.01219
3.68273 1.29445 9.54162
1.76931 0.139802 6.83353
1.2888 -0.0564766 7.0253
1.82433 0.148399 6.82287
0.897953 -0.619347 7.37378
4.31055 -4.75814 13.5763
2.30658 -0.0906333 7.0145
2.28406 1.71506 9.11431
1.44357 -0.0912864 6.98603
-0.80467 3.0645 8.10743
2.16759 -0.100198 6.99799
2.43357 -0.531781 7.29308
0.130124 -1.24505 7.8168
1.65296 0.32501 6.83145
2.25735 -1.90307 8.2717
1.2071 -0.223831 7.10839
1.43693 -2.2848 8.57072
1.34136 -0.213583 7.06612
2.19095 -0.136897 6.97921
3.71379 2.18764 8.91114
1.84302 -0.00817045 6.91348
1.27472 -0.188311 7.06315
1.65154 -2.06496 8.39065
2.27856 -0.159372 7.02055
2.02315 -2.0787 8.41808
3.68591 2.15531 8.88897
2.37685 -0.168175 7.04849
1.25175 -0.243543 7.1025
-0.557801 2.82084 8.26278
1.82476 1.88378 8.95211
2.31163 -0.144045 7.00898
2.06372 -0.823583 7.47852
1.80558 -1.97183 8.35761
2.0022 -0.395377 7.1608
2.21175 -0.581626 7.29971
2.0244 -0.0912674 6.96194
0.975148 -2.43612 8.6541
2.28743 -0.670423 7.38716
-0.353813 1.38124 9.16666
4.64108 -4.81577 13.6097
4.62339 -2.45171 11.9571
3.72705 2.1545 8.91797
1.67035 0.369468 6.81262
2.62644 1.44494 9.3204
4.07221 -5.23343 12.9239
-0.746121 -0.428679 7.24643
-1.56188 -4.48151 10.1664
1.88972 0.200949 6.80264
2.00459 0.247823 6.86886
1.52969 -0.393346 7.18395
5.64719 -4.82395 13.6027
0.190098 -0.945268 7.64613
2.30311 -0.191025 7.03063
2.16406 -0.101798 6.98588
4.18462 2.0738 9.12751
-0.479146 4.21168 7.35289
2.77607 1.59545 9.30237
1.76938 0.33959 6.8354
-0.0327718 -0.515804 7.30386
4.03536 1.80362 9.20469
1.60736 -2.1169 8.44183
1.34514 -0.208669 7.07923
-1.77426 2.84439 8.24561
2.07011 -0.0234779 6.91268
1.21153 -1.72348 8.16872
1.87 -1.38794 7.90154
2.47477 -2.76366 8.92281
0.467868 -1.37505 7.89157
2.49731 -0.236282 7.07483
3.35171 2.2015 8.92412
-0.353099 1.37851 9.13934
2.14622 -0.0033939 6.92981
1.64766 0.0124523 6.89761
3.13326 2.21032 8.88904
1.16208 -0.246799 7.10878
2.50853 -2.72812 8.92096
1.88164 -1.82734 8.20101
4.6642 -4.74388 13.5359
1.24376 -0.14848 7.06792
1.42754 -2.33455 8.62981
2.19541 -0.131332 7.00325
4.7281 -4.84192 13.6665
0.485522 -0.690657 7.43681
3.7793 1.91333 9.12885
1.4956 3.57672 7.88718
1.4691 -2.34741 8.56977
1.55096 3.54177 7.9047
2.03002 -0.0844171 6.98083
-1.75861 2.7782 8.2169
4.3381 -4.64538 13.5498
3.33906 1.00162 9.71798
1.52087 2.78831 8.33156
2.2807 1.71512 9.08694
4.1183 0.983487 9.77138
2.66194 2.7628 8.38695
3.77502 2.44661 8.7546
-1.79484 2.77218 8.2366
2.50788 -2.72346 8.90388
0.911474 -2.48552 8.7092
1.84534 0.321032 6.7829
1.7402 0.291735 6.81189
3.78272 1.91039 9.14145
1.27136 -4.16719 9.92114
0.660992 1.65988 9.01418
1.20902 -0.275267 7.12182
1.91612 0.189389 6.81222
0.470316 2.63815 8.38085
1.82037 0.139625 6.79919
-0.943313 4.43578 7.25295
2.42371 -2.40174 8.62006
-1.251 -3.01476 9.071
-0.360745 1.36751 9.1169
3.57841 1.35494 9.4789
1.50612 -2.35543 8.62178
1.21715 -0.220504 7.05028
2.0004 0.0199901 6.87928
-0.0822775 -1.71378 8.12117
1.43694 -2.30863 8.53426
0.959123 -0.568868 7.33356
4.27557 -4.7846 13.5521
1.41465 3.52556 7.86192
4.72865 -4.84085 13.6521
2.27185 -0.162505 7.03643
1.93085 -1.66103 8.06241
2.2664 -0.134907 7.02459
4.20533 -1.00644 11.0376
3.60099 2.4408 8.7202
4.69332 -4.76287 13.6114
4.24179 1.09272 9.69425
-0.168159 -1.65152 8.13114
2.80043 1.61073 9.21862
-1.86687 3.83031 7.5691
2.08273 -2.21097 8.51437
1.90081 3.20699 8.03338
1.9939 2.29681 8.66812
-1.55009 -4.47032 10.1296
0.888664 3.38814 7.9507
1.44003 -3.68495 9.5285
2.27722 3.90668 7.59694
1.60938 -2.11767 8.41447
3.56157 0.947499 9.73953
1.44622 0.0765767 6.92818
1.76703 -2.40887 8.67317
2.23742 -0.179368 7.01015
1.2601 -0.157523 7.03938
0.984922 -3.88943 9.72261
2.20139 -0.092047 6.98079
-0.376281 1.31732 9.21661
3.60031 1.36594 9.54759
2.30772 -0.0878866 7.02766
1.4106 2.3442 8.72172
3.69838 2.1198 9.03483
-0.426994 -0.321118 7.22804
0.698845 -0.708685 7.43776
1.51936 3.51716 7.86061
3.80669 1.87302 9.13345
0.751694 -0.677294 7.41829
0.47623 2.61089 8.31698
-1.7195 -3.02774 9.20839
1.38479 -4.20882 9.90972
0.361749 -1.11085 7.70341
3.16139 2.21774 8.93089
3.07693 3.07085 8.09507
4.6773 -4.80859 13.5269
1.28651 -3.19423 9.22261
1.99384 -2.34002 8.58383
-0.865658 1.8713 8.84781
4.7344 -0.35005 10.6853
0.884829 2.44943 8.45002
1.5318 -0.396044 7.1665
3.21641 1.98085 9.03372
1.35636 3.34572 7.98241
3.2334 2.14186 8.98572
-0.177799 -2.74083 8.9123
-1.65851 -3.48418 9.4434
-0.146113 -2.76043 8.91446
4.25912 1.10403 9.72717
-0.522925 -0.754334 7.48924
-2.63144 1.91419 8.85675
-1.43983 3.82857 7.53401
0.777663 1.81252 8.91933
1.71346 0.0239477 6.91209
0.146708 -0.940656 7.60021
0.18245 -0.952748 7.61467
-1.6951 -1.06565 7.67347
-1.62096 4.31976 7.22911
-0.475794 4.19218 7.34195
2.37946 -0.222849 7.09049
1.25804 -0.158571 7.05273
2.06548 -0.0331217 6.92506
1.36117 0.0525486 6.96226
1.75128 0.276961 6.82958
-0.868251 3.82336 7.54025
1.82326 0.322445 6.81956
1.66408 0.595475 7.01674
2.35864 3.6857 7.73298
1.23037 -1.70234 8.13877
2.78457 1.58009 9.26168
3.27655 1.89216 8.99814
1.60642 -2.137 8.39885
2.49495 3.23686 7.99392
1.87287 3.19449 8.03404
3.72347 2.16725 8.97848
2.96865 2.55688 8.63263
0.0474704 2.50169 8.42895
0.466295 2.59766 8.30708
-1.76394 2.79065 8.19215
1.66015 2.86697 8.18267
3.31555 2.95145 8.37313
0.451532 -1.39614 7.93649
0.124486 -0.553862 7.33512
-1.64171 -3.46981 9.36721
-0.470051 3.88067 7.49053
-0.175279 -2.78117 9.00978
0.962547 1.84983 8.99116
3.30783 1.98095 9.02668
2.70114 3.79028 7.60657
0.94304 -1.32484 7.8347
1.10716 1.86437 8.90108
1.51154 2.74362 8.25445
4.12308 0.713288 9.90911
0.602927 3.08687 8.21519
4.69564 -4.84563 13.6307
1.8714 -1.39357 7.91591
-3.33858 0.874975 9.61177
-1.54721 4.3147 7.18637
0.738831 -0.68629 7.38522
-0.381087 3.86016 7.6739
1.3528 3.31172 7.91724
0.948974 -3.98441 9.75433
0.204294 -0.864782 7.50888
-0.798753 3.26872 8.02427
0.167804 -0.952055 7.59141
3.7155 2.15856 8.95986
-0.18617 1.25065 9.26074
1.74213 0.203836 6.84634
3.29869 2.93141 8.34713
4.16667 0.989508 9.83261
3.84899 0.408827 10.146
3.36282 2.71194 8.56053
3.66918 2.0758 8.90519
1.49023 3.52347 7.87516
0.990875 -0.551275 7.35155
-0.377879 1.355 9.1562
-2.18258 0.832479 9.55765
2.19696 3.14036 8.10467
0.00919977 -1.48855 7.97985
-0.729928 1.38967 9.0487
1.83191 3.11342 8.0937
1.22811 -1.69979 8.1147
-0.996974 1.75981 8.87684
3.25376 3.68587 7.69697
0.910539 -2.49866 8.72132
1.60433 -2.3769 8.62219
1.60202 -2.27846 8.50019
2.52933 1.71187 9.10858
0.645783 1.66145 8.96602
-0.299371 3.74028 7.61796
1.60173 -2.04995 8.38903
-1.75622 2.77098 8.17123
2.9711 2.56341 8.66309
1.45141 0.0757694 6.91317
2.71367 3.80728 7.65863
-3.44359 -0.276449 10.3886
-1.51735 3.14175 8.03491
1.84722 -1.83507 8.21415
-2.6139 1.58462 9.13003
-1.65858 -3.5121 9.48549
-2.45532 2.13878 8.58426
1.71069 0.0237659 6.86725
1.79763 0.00415966 6.86731
2.13331 -0.125071 6.97031
-0.311261 3.78622 7.66768
0.931249 -0.569765 7.31403
1.46575 3.62011 7.86382
0.456956 -0.713744 7.42063
1.42481 3.56634 7.91085
3.10349 -2.41106 8.86612
3.28396 2.93875 8.30573
-0.757233 2.9508 8.07206
1.60491 -2.03261 8.37983
-1.11187 1.72087 8.89745
0.951705 -3.97683 9.74127
1.72254 3.94595 7.58691
3.15088 2.19675 8.86314
0.581691 1.54172 9.01996
3.44503 2.05065 8.96982
2.27154 3.87427 7.58408
2.71087 3.78831 7.61227
-1.29987 -5.6208 10.537
1.48712 3.50772 7.87567
0.0678618 2.46584 8.45437
0.745967 1.81794 8.85764
-0.902447 1.82022 8.88343
-0.372369 1.34117 9.08421
-3.07266 1.08449 9.55233
-2.20093 0.837385 9.55265
-1.69904 -1.07179 7.66629
-0.355749 -1.80378 8.07874
1.58749 -2.04025 8.30796
1.6087 -1.93631 8.26101
-0.0297808 2.48352 8.53136
-0.341508 3.90774 7.5061
-2.45136 1.84971 8.88452
-0.59575 2.89097 8.31182
1.67517 2.8488 8.19082
2.93543 2.96335 8.32818
-0.317539 3.76825 7.62122
-0.268035 1.35496 9.12646
0.114637 1.24186 9.3506
0.0359146 -0.972493 7.55811
1.80625 3.12321 8.08069
1.79382 0.128301 6.79098
0.920392 -0.581847 7.33851
2.05324 -0.180938 7.04968
1.9318 -1.67766 8.11307
1.99843 0.00336438 6.87234
2.77451 1.5943 9.33103
-2.66795 2.00708 8.95575
1.98883 -0.38045 7.16107
3.71872 2.19413 8.9402
4.51787 2.45783 8.89781
3.10435 2.17349 8.7845
2.37359 -0.223263 7.03611
1.90088 0.201759 6.84898
4.05035 1.80755 9.23179
1.14746 -0.239504 7.0532
1.82521 1.87499 8.92395
2.67287 -2.21667 8.51618
1.65274 -2.05881 8.33117
1.91495 0.10817 6.81927
1.82843 0.1234 6.79986
2.91182 -2.38494 8.72331
0.900415 -0.623631 7.34717
0.127126 -2.80374 8.89623
-0.149361 -1.43966 7.91849
3.40393 1.22175 9.62222
2.34043 -0.714803 7.41113
2.00883 0.212371 6.80368
0.489704 -1.3736 7.86625
2.28513 1.72744 9.17018
2.57653 -0.358757 7.17882
1.72936 1.92016 8.97806
4.25776 1.10928 9.75836
1.74076 0.283051 6.75488
2.17649 -0.0135636 6.95964
2.13889 -0.0115856 6.90823
1.72961 0.0306437 6.89235
0.472027 -1.36814 7.87535
2.57385 -0.335008 7.18787
2.30805 -0.3007 7.14803
1.65432 0.314559 6.78541
-0.0519443 -1.69984 8.03603
3.69133 2.16333 8.92013
2.16476 -0.0319722 6.94032
-0.374817 0.708757 8.38961
1.84338 -0.00812082 6.90562
1.19761 -0.17531 7.00295
2.46717 -0.303129 7.09623
2.55174 -0.11144 7.12432
1.67929 0.441941 6.82562
1.29004 -0.161021 7.04328
1.86343 -1.39464 7.89892
1.04052 -3.9326 9.72871
2.02133 -0.220448 7.02625
2.26604 -0.13933 6.96362
1.43843 -2.27929 8.53934
2.3105 -0.147476 7.00612
4.22329 -4.71584 13.5226
1.40745 -0.149511 6.99515
0.231716 -0.89056 7.51202
4.29956 -4.73351 13.5035
1.29063 -0.0592954 7.0048
2.37334 -0.175738 7.00646
2.23125 -0.163145 6.98255
-1.01702 -1.10289 7.68947
2.21349 -0.179373 6.9788
2.04023 -0.566065 7.23453
2.30281 -0.190527 7.02666
2.50661 -2.7228 8.91008
0.138493 -1.24277 7.78254
1.68124 0.740481 7.15264
4.02162 0.899585 9.92071
4.63704 -4.82808 13.6139
0.970868 -1.31814 7.8016
1.35073 -2.17699 8.45659
2.36886 -0.57492 7.25738
2.37166 -2.62815 8.78342
2.21135 -0.583798 7.31053
3.80092 1.93123 9.21966
2.00141 -0.397739 7.15864
1.67026 0.371714 6.82096
2.57441 -0.128582 7.10113
2.79396 -2.68862 8.89524
-0.583963 -0.457192 7.21529
0.942384 -3.99355 9.74781
2.43043 -0.53335 7.24099
1.81355 -0.0074735 6.90276
-1.15297 -0.396467 7.19225
-0.615295 2.84821 8.22007
3.78997 2.46266 8.80329
0.640122 1.6366 9.07202
-2.09306 -3.73393 9.64953
4.16982 2.73736 8.55391
2.02161 -2.08097 8.40985
2.38098 -0.354988 7.09864
4.50198 -3.00894 12.3697
2.20933 -1.53183 8.01047
2.02425 -0.0916874 6.96429
4.71056 -4.80121 13.7122
0.209304 -1.01412 7.62219
1.60414 -0.897549 7.53365
2.30503 -0.0932963 6.9548
3.73183 -4.66512 13.453
2.99851 -2.30919 8.71444
2.3029 -1.37773 7.89806
2.16368 -0.282609 7.04269
2.32272 -0.755005 7.37741
5.04232 1.47203 9.61693
3.99295 2.42007 8.85046
0.216163 -0.940363 7.53874
-2.60754 2.26925 8.53898
2.67269 -2.21925 8.50182
-1.51063 -1.69417 8.10172
2.20186 -2.08045 8.3472
1.42974 -2.29584 8.45173
1.33727 4.42361 7.36752
4.97105 1.50206 9.5995
3.75642 2.41789 8.8279
-0.0711601 -1.71265 8.11272
1.7273 1.90346 8.92461
1.44395 -0.0926654 6.97548
2.27239 -0.159105 7.03437
1.02141 1.93267 8.92002
1.95165 -1.66724 8.06022
1.93282 -1.66161 8.07464
0.0554775 -1.47268 8.00859
1.88043 4.22518 7.49141
3.79287 1.93103 9.20445
-2.41216 1.88622 8.74146
3.86943 1.27845 9.6172
1.9909 -2.05497 8.38353
1.86773 -1.39394 7.9087
0.131094 2.31672 8.61557
2.6542 -0.236866 7.23041
-0.917966 -1.04546 7.57242
4.30717 -4.76247 13.5932
4.26388 1.10906 9.77283
5.02206 0.950701 10.0154
2.35545 -0.210342 7.0789
2.49609 -0.237094 7.05245
2.4025 -0.200545 7.04899
4.69857 -4.80384 13.7212
-0.727385 1.3912 9.06807
-0.107086 -0.94077 7.54384
-0.350133 -0.899962 7.56509
0.212165 -0.941818 7.56827
2.07272 -0.28878 7.02328
4.02537 0.889245 9.9076
0.984363 -2.42798 8.63845
2.00049 2.32257 8.71508
2.62924 1.45568 9.37823
-4.88657 -3.91696 11.7814
2.45297 -0.409024 7.21639
-2.5054 1.9544 8.89764
2.16256 -0.107632 6.93231
0.141347 -2.83726 8.90943
1.61152 -2.10208 8.34989
0.704652 -0.702509 7.40503
1.20865 -1.72722 8.19291
1.67908 0.445057 6.83765
1.26279 -3.16209 9.14075
4.15643 2.74358 8.58426
0.132017 -2.81496 8.91639
1.67383 0.376923 6.85759
1.77135 0.330072 6.77673
-0.0147476 -0.516481 7.24081
0.135953 -0.531209 7.30981
-1.15134 0.813255 8.73547
3.39085 1.75391 9.27833
1.64178 0.31572 6.78384
1.55364 3.5308 7.87563
1.57565 0.313413 6.79258
1.78385 0.112782 6.78489
3.38673 1.81352 9.23786
2.46813 -0.303377 7.11449
0.91923 4.43678 7.39524
1.88938 0.199693 6.80212
1.91412 0.187558 6.80697
2.23197 -0.179016 7.06182
1.75572 0.158226 6.80018
2.29775 -0.171795 7.03758
1.41017 -0.0737497 6.97882
2.38086 -0.169781 7.05454
1.82348 0.138889 6.80049
2.19387 -0.136644 6.97923
2.31044 -0.144407 6.99432
2.10907 -0.104424 6.92515
1.87328 0.262562 6.82866
-0.696035 3.39174 7.83679
4.53667 2.16923 9.01946
-0.264103 3.36576 7.97169
1.93879 0.216475 6.78103
2.02918 0.0385317 6.82085
1.88763 0.0563861 6.83132
2.14496 -0.00745396 6.91779
1.99834 0.0277409 6.9088
3.29594 2.98678 8.25405
1.93465 0.0687964 6.8537
1.75588 -0.027416 6.94999
1.34878 -2.18146 8.5008
3.78061 2.45504 8.78612
1.88876 -1.55828 7.97126
4.40781 2.2554 9.13395
-2.65351 1.9406 8.90879
-1.84505 2.81629 8.34505
4.8744 1.21775 9.76003
1.52856 -0.395325 7.18646
2.54904 3.48048 7.93342
-0.258533 1.44203 9.12575
3.61135 2.46018 8.76442
3.24892 3.71266 7.72509
3.35363 1.01734 9.83795
0.0902345 -2.85976 8.96694
-0.354417 1.28628 9.12615
4.24891 -2.76742 12.2941
5.3447 -0.20313 10.8237
0.10975 -0.5678 7.34396
1.84458 0.324732 6.81276
1.73256 0.426306 6.80586
1.99168 0.187395 6.78417
-1.21969 -2.99084 8.98895
2.02712 0.0395359 6.85208
2.03444 -0.0340566 6.88299
2.51721 -0.149824 7.06124
1.9316 -1.65705 8.03837
4.13264 2.76338 8.52241
2.4087 -0.198822 7.06682
2.46729 -0.240234 7.06803
2.2798 -0.30385 7.11421
-1.02569 -1.10258 7.59015
0.697342 -0.705199 7.45481
1.20849 -4.17669 9.69971
1.15074 -3.10202 9.11458
-0.479839 4.20938 7.36323
3.39732 1.81303 9.24672
-2.61915 1.61506 9.13745
-0.73422 1.39998 9.09301
4.2468 -4.76287 13.6831
-1.65751 -0.785801 7.46738
-0.983281 4.50743 7.35239
1.87627 0.258772 6.78957
1.91491 0.187063 6.82182
1.29582 -0.0603088 6.9387
2.402 -0.231263 7.05178
3.80282 -0.654107 10.8575
0.963341 -0.568236 7.30455
4.57967 2.21107 9.19237
0.912592 -2.48284 8.70105
2.76841 1.5841 9.29169
0.872244 -2.48548 8.67715
1.33754 4.37281 7.29585
1.25365 -0.241781 7.0879
-2.55111 2.20295 8.55504
1.03891 -3.89167 9.62793
2.42106 -2.39168 8.5636
-2.54406 2.14684 8.6185
2.04436 -1.95133 8.2482
3.94741 2.32839 8.96721
0.174339 -0.851916 7.61782
3.3255 2.23533 8.94335
2.23702 -0.293697 7.05782
1.6912 0.0595237 6.86776
4.86924 1.45297 9.57008
-0.142873 -1.6382 8.04059
-0.338119 -1.7959 8.16057
2.017 -0.229094 7.03308
3.64522 2.07925 8.8924
2.27857 -0.241351 7.02109
1.43348 -2.26068 8.47216
-3.05612 1.58341 8.93709
-0.884313 1.88948 8.90625
3.66631 -4.64082 13.3664
-1.54176 -4.45958 10.1118
-1.09125 -0.35334 7.16031
2.2031 -2.09266 8.3821
-3.35788 -0.294221 10.2604
-2.96068 1.18527 9.24892
4.19527 0.982574 9.79319
0.124284 -0.564039 7.28388
-0.1104 -0.935391 7.57432
0.36119 -3.52416 9.43412
-4.87242 -3.91216 11.7546
4.36452 2.24301 9.11369
1.55178 3.54296 7.90113
2.58195 -2.18757 8.48785
5.23067 -0.232906 10.6796
-3.18139 1.04978 9.41024
0.132596 -0.537865 7.32209
-1.80198 2.85044 8.29463
2.30688 -0.0927615 7.03118
0.0540047 -1.47387 7.96387
1.81971 -2.48266 8.65342
-1.15007 -2.86945 8.9842
2.66657 -2.22477 8.49005
-1.06467 2.43293 8.48306
3.6886 1.29015 9.53924
4.48651 2.423 8.81533
1.50977 2.40995 8.55519
1.57667 0.322663 6.81185
1.18684 2.20889 8.60432
1.98556 -0.381618 7.12904
1.34786 -2.16538 8.41458
4.21216 2.04071 9.16699
3.61988 0.949484 9.84809
3.71855 -4.62171 13.3152
4.26725 -2.77921 12.3614
1.88216 -1.83275 8.26222
3.67691 -4.65563 13.4461
4.34945 2.23095 9.07543
3.23105 3.13481 8.24187
4.5748 2.19808 9.16867
1.88994 3.22151 8.03938
-1.04584 -4.35512 10.022
-0.359688 1.31155 9.15944
3.31017 0.952156 9.72361
0.470625 -1.38012 7.91322
-1.05788 -1.12558 7.6966
1.47274 -2.36704 8.58887
1.21992 3.03583 8.14518
1.83385 3.16474 8.16295
0.191684 -0.945222 7.58646
0.130272 -0.943074 7.65087
4.26475 1.10194 9.76165
1.61932 -2.12942 8.42827
1.38349 -4.21351 9.91527
-2.26224 1.67992 8.83079
1.65362 0.319506 6.83545
1.63237 0.348656 6.83737
2.48353 -0.29913 7.13786
0.68686 3.3923 7.89291
2.01577 4.19926 7.47786
0.214779 -0.849762 7.4386
0.947063 -4.04707 9.94382
2.24044 -0.300335 7.00596
2.46546 -2.74357 8.83963
-0.318424 -1.85061 8.18831
1.02196 -3.90679 9.66591
4.21708 2.80706 8.61947
3.40375 1.8351 9.30452
2.27682 -0.318555 7.01062
-1.60787 -3.44617 9.31051
1.99348 -2.3225 8.48694
4.12431 2.69761 8.473
0.448924 -0.719461 7.42778
4.97851 0.937989 9.89001
1.42986 -2.26367 8.50604
3.61956 0.959994 9.89942
1.87886 0.255962 6.80719
0.286276 -1.20072 7.68905
1.75803 0.16628 6.80738
1.68183 0.699237 7.11338
4.14557 0.978003 9.81411
0.71064 -0.704167 7.38148
3.73951 2.18145 9.0084
3.33053 2.181 8.86598
-2.91083 1.2074 9.3196
3.81904 -0.65242 10.9255
0.482606 2.60818 8.29241
-1.78852 -0.978425 7.59121
-0.0819407 -0.976194 7.61779
2.26876 3.86958 7.58408
1.69166 0.057292 6.85312
-1.87375 3.85463 7.59922
1.36452 3.30559 7.89557
0.209067 -1.01825 7.64275
-0.820163 3.1023 8.16411
1.70662 0.246763 6.83034
-0.141765 -2.75621 8.89464
3.68507 1.4258 9.57396
3.25841 3.7269 7.74869
1.86206 0.211381 6.71865
1.64864 0.679014 7.06449
2.6597 2.73851 8.36318
-1.22341 -3.0056 9.01786
-1.22287 -0.381711 7.24415
-0.718261 -0.430657 7.15953
3.24199 2.16289 9.0459
-0.913241 1.90092 8.97828
3.70331 2.12434 9.07158
4.88627 1.46286 9.60859
-2.5997 1.9117 8.80119
1.55513 0.858304 7.30461
1.28037 -3.2126 9.28065
-1.11741 -0.351107 7.22026
1.99661 0.193981 6.81476
3.57619 3.5289 7.85843
3.95761 -0.9526 10.8242
4.66725 -4.80639 13.4903
4.26047 -1.02596 11.335
0.366975 -1.10869 7.67917
3.87919 0.420477 10.259
-1.53402 -2.20791 8.52685
-1.51585 -1.69294 8.08067
2.61898 1.43592 9.30329
2.15051 -0.291693 7.06503
-0.909175 1.84388 8.79551
4.47686 1.74946 9.34539
4.20252 2.1005 9.21465
1.99585 2.28697 8.61985
0.25083 1.50602 9.0774
1.4614 2.73691 8.18991
0.355752 -3.53132 9.47385
1.5799 0.326265 6.84131
-1.67484 3.11224 8.04311
2.58296 -2.18971 8.46525
4.09474 -2.33007 11.864
4.46569 2.07497 8.99734
2.14872 -0.011373 6.95174
1.26257 0.0789604 6.88275
2.06591 -0.0324885 6.91473
2.36675 3.62298 7.69562
2.11346 -0.113105 6.98286
2.47215 -0.239636 7.09698
-1.60936 4.30191 7.20572
-3.27077 0.940341 9.60507
0.47339 2.58945 8.27514
2.23443 -0.309541 7.01249
0.982724 -3.89277 9.73726
4.53482 2.15993 9.04754
1.70087 0.233206 6.76347
2.90072 3.65477 7.67273
-0.537702 2.79933 8.15129
-3.00321 1.03237 9.42524
0.926722 -0.571228 7.31686
-0.0255784 -0.528255 7.31607
0.139035 -0.557766 7.27441
3.26713 3.73583 7.77181
2.88312 3.74483 7.70211
0.936797 1.85589 8.90323
-0.861741 3.81339 7.52377
-2.61621 1.91492 8.83123
-2.83758 1.15971 9.17415
1.87234 0.250901 6.82151
-0.773457 1.96825 8.74223
1.7489 0.423328 6.88038
-1.97082 3.15247 7.96481
0.772267 1.826 8.96247
1.54714 -3.83139 9.78125
2.35898 3.68409 7.72359
2.96798 2.55472 8.62865
0.199548 -0.848923 7.50588
3.15246 3.03533 8.16268
-0.611211 2.88472 8.26548
0.125182 -0.950642 7.67546
-0.118864 -0.941508 7.56902
0.0393999 -0.978428 7.63578
3.23107 2.15837 9.05255
1.3059 -0.179095 7.05426
1.27813 -3.21987 9.30522
0.359575 -1.11844 7.72385
1.23235 2.97877 8.00348
-2.35217 0.847837 9.92756
-1.94971 1.45952 9.06671
-1.10711 -2.83833 8.90935
0.953932 -1.31638 7.7615
-1.05234 -1.11247 7.63792
-1.70157 -1.06902 7.68331
-2.5196 1.53488 8.90167
-0.741154 1.39868 9.08518
2.37779 -0.226677 7.07334
-0.371536 1.36517 9.17324
-2.91604 1.07339 9.28485
1.81579 3.11374 8.07242
1.94111 -1.66183 8.03401
4.24833 1.09667 9.74049
0.127626 -2.84244 8.90874
2.31221 -0.160347 7.09706
1.37912 -2.28857 8.60437
1.65924 2.89261 8.22984
4.34133 2.23541 9.07922
4.02396 2.69012 8.50873
1.79145 -1.96348 8.32289
-2.23792 2.2004 8.61894
1.35136 3.28201 7.87269
-1.55083 -1.67408 8.0249
3.25979 1.85359 8.89424
1.51518 3.51633 7.88387
-1.55632 4.33019 7.20551
3.55967 1.33682 9.43259
0.98756 -2.40611 8.53653
-0.258153 -2.51172 8.74747
0.397711 -0.680638 7.33889
1.51423 2.71949 8.20167
1.59841 -2.36664 8.61602
0.690131 1.90375 8.8079
0.626628 3.01322 8.06826
1.9928 -2.31824 8.47586
-2.31513 0.895186 9.70868
0.752883 -0.686607 7.30403
-2.93281 2.0456 8.70918
1.58687 0.468345 6.86247
1.83614 -1.82934 8.15375
-1.26677 -2.98376 9.04031
2.22332 -0.136879 7.02058
-2.43307 1.88156 8.77858
2.35585 3.57369 7.60828
-0.923624 3.78101 7.53521
1.49268 3.51895 7.85619
1.36227 3.26383 7.81499
1.63142 -2.1366 8.32776
1.60978 -2.02355 8.21926
-1.56836 -3.37311 9.32584
0.170904 -0.950995 7.57899
2.36535 -0.186175 7.02586
2.12987 -0.124402 6.99375
2.00681 0.0117417 6.80687
1.65222 0.569542 6.97064
1.64251 0.685888 7.14922
1.65194 0.749309 7.17116
-2.00049 1.4858 9.16224
-0.198938 1.26435 9.31685
4.11154 0.873246 9.94246
-1.22953 -5.57263 10.5639
4.26491 1.0497 9.8896
1.28377 -3.21867 9.27225
-1.00758 1.77362 8.91128
-3.16537 0.92894 9.37606
-2.66237 2.05731 8.83746
2.97654 2.58171 8.71472
2.13091 -0.0230338 6.83759
-0.793353 1.98563 8.80347
0.691577 1.90171 8.84117
2.28374 -0.10445 6.93357
4.69235 -0.356546 10.5629
2.90226 3.66254 7.70255
4.53451 2.17085 9.07323
-0.208207 1.32946 8.92396
-0.0111775 -0.537634 7.26304
4.02534 2.6794 8.50636
0.189986 -1.04934 7.70171
0.479157 2.59619 8.30345
0.364648 -1.12983 7.74061
-0.292848 3.81281 7.57975
0.94515 1.8253 8.81795
0.00942329 -1.49663 8.02057
-0.795732 2.99473 8.18053
1.87521 3.22332 8.09782
3.72901 2.17933 9.03575
-1.63085 -1.72879 8.29307
3.36883 1.77863 9.07117
1.6622 2.81459 8.08965
-0.138525 -3.59393 9.67577
1.83487 3.08808 8.02698
-2.52108 2.12921 8.69707
0.978249 -2.42377 8.65391
-0.647698 -5.70054 10.3237
-0.415763 -0.333043 7.15354
4.14769 1.11718 9.73841
1.97827 -2.10238 8.4384
-3.35922 -0.287652 10.2236
0.102527 1.2222 9.26813
0.92605 -2.47304 8.59761
0.714803 2.58259 8.41765
3.58282 2.4495 8.74593
-0.276472 3.70871 7.54861
1.59987 -2.39163 8.68238
0.230909 -1.2204 7.7644
-0.487725 4.19525 7.36106
1.8436 -1.84381 8.2111
0.789136 2.94049 8.17951
-1.51231 3.14451 8.02767
-1.75264 2.76887 8.16363
4.20626 -1.01942 11.0647
1.39261 -2.27419 8.50045
0.181866 -0.937065 7.54874
-2.02226 -3.68991 9.58311
2.37419 3.66495 7.72717
2.26608 -0.147583 7.0494
2.13527 -0.116814 7.04324
1.4866 3.55588 7.93196
1.36431 3.34455 7.93666
-1.22895 -3.02503 9.24838
1.66882 0.566804 6.96682
1.63612 -2.15513 8.43667
-1.01174 1.75039 8.82088
-2.51993 2.1786 8.70801
0.486024 -0.704536 7.29615
0.0140616 2.40386 8.33876
3.84875 -0.645996 10.9579
0.129153 -2.80742 8.81866
0.053738 -0.973787 7.59339
-0.112473 -0.959828 7.55743
1.31575 -0.142945 7.03592
1.71856 3.97884 7.65219
3.26549 3.7026 7.70095
3.30037 1.93336 8.88164
-0.306696 3.83724 7.61342
1.73111 1.88401 8.89217
0.718416 1.85822 8.67362
0.990712 1.78838 8.7014
3.3895 1.8021 9.18577
3.84285 0.420395 10.0674
2.19642 3.14737 8.13049
1.64303 -0.854931 7.47982
3.277 2.91553 8.26855
1.2971 -3.23409 9.3098
-1.26893 -2.89429 8.9451
-0.345363 1.3438 9.06003
4.14235 0.972835 9.75173
4.28448 1.12752 9.86141
2.76295 3.81273 7.52937
-0.00828992 -0.538915 7.27854
0.460003 2.63758 8.40749
-2.75642 1.82337 8.83119
2.26853 3.83218 7.52246
3.44541 2.05103 8.97131
3.58313 3.57018 7.93485
0.391429 -1.1466 7.72797
-2.00463 2.4126 8.54982
-0.286613 3.7444 7.58983
-1.03941 -1.11567 7.59508
0.00508173 -1.50204 8.02956
2.92894 1.37517 9.25138
1.47423 0.06908 6.81027
1.12162 -0.343231 7.13297
-0.729954 -3.17374 9.20358
1.88282 0.225702 7.03732
1.95272 0.106631 6.86425
0.632929 1.68732 9.11543
-0.95965 3.92118 7.72543
1.59337 -2.02293 8.24486
-0.325222 -1.7884 7.97473
0.166632 -0.964206 7.54246
0.703451 1.83325 8.72434
1.58886 -2.25819 8.44037
0.217079 -0.870385 7.40686
2.11634 -0.143124 6.92032
1.96729 0.211286 6.89061
-3.1543 0.94935 9.34053
0.0967051 1.26416 9.44399
4.12881 0.840146 9.98516
-0.322579 1.29841 8.89409
0.0597045 -0.971291 7.46244
1.94579 -1.67742 8.06873
2.05282 -0.182469 7.02672
0.550965 1.70562 8.81484
1.84747 3.25298 8.22555
1.42909 -2.04822 8.15919
-2.38135 1.63529 8.96477
1.60643 -2.42858 8.75882
4.11203 2.95149 8.52531
3.2704 2.89445 8.23039
-0.149026 1.95404 8.85624
3.43531 2.06066 8.96894
0.970052 1.83361 8.83646
4.10796 1.07581 9.61544
0.127399 -2.8237 8.81325
3.35095 1.77632 9.01693
1.84409 2.23573 8.70262
-2.59398 1.56936 9.03444
3.87791 0.439536 10.3001
2.93696 2.96802 8.3676
0.826956 3.04498 8.1001
1.83637 1.89137 8.97116
4.0083 0.891681 9.86312
4.81729 1.47827 9.48686
1.4277 -0.0740646 7.0755
2.397 -0.175908 7.14935
0.272381 1.51411 9.18692
-1.3094 -0.507202 7.43082
5.7648 -0.52086 10.7933
0.93755 -0.565279 7.44809
3.25079 3.68852 7.6797
1.20211 2.27435 8.6333
3.74271 1.94028 9.02764
3.08885 3.0699 8.11859
-4.177 -3.90286 12.1456
0.471628 2.07887 8.71399
2.43404 -0.229339 7.19322
-0.0942732 -1.75131 8.31392
0.602373 3.14236 8.09611
3.17912 2.18168 8.87829
1.99571 4.15729 7.42591
3.04394 3.01569 8.2175
-0.368632 1.39198 9.22744
1.4292 3.53721 7.86679
4.8373 1.44493 9.50883
-0.768377 3.01682 8.17116
-1.75598 2.84106 8.24779
-1.80928 -1.03632 7.78842
4.85071 1.20164 9.66704
-2.11008 -3.76757 9.78514
5.12571 -0.403258 10.7429
-2.45938 1.93121 8.90482
2.29699 -0.166326 7.12851
-2.60222 1.99104 8.88158
1.71801 3.9459 7.58119
-3.99154 -4.09874 12.11
-4.1025 -3.82788 12.0927
3.39406 1.21411 9.5922
0.770186 3.06301 8.1626
2.54672 3.43899 7.85088
3.75601 2.40249 8.79068
1.81859 0.313779 6.89765
2.50673 3.25497 8.00205
-2.06131 -1.13517 7.88955
4.37629 2.20288 8.99359
1.54076 3.51808 7.88301
3.57343 3.49716 7.8267
0.0699022 2.45628 8.49005
-2.56662 1.96859 8.82471
3.98351 2.40737 8.77692
2.78175 1.58054 9.27555
-1.97769 1.49727 9.23656
3.15961 2.187 8.87353
3.7327 2.15956 8.94721
1.91066 3.19468 8.00824
-0.87443 1.88428 8.88854
4.34214 1.2507 9.62008
3.59118 0.973114 9.73911
1.23217 -0.16926 7.15816
3.30533 1.91949 9.05008
1.66216 0.697309 7.16579
1.43545 3.53072 7.86126
-0.539157 2.84238 8.2758
0.433415 2.64771 8.36513
0.0707403 2.52664 8.46892
-1.01818 2.45256 8.55913
-2.47658 1.94941 8.86624
0.0755189 2.46973 8.48814
2.02364 4.14058 7.39542
3.25117 3.68696 7.6915
-1.75916 2.78397 8.23662
1.84129 3.10447 8.03899
3.00607 1.46143 9.40208
1.90002 3.19842 8.0006
2.96652 1.3788 9.38885
-4.11829 -3.84607 12.1341
-4.17638 -3.91085 12.1151
4.32758 1.25178 9.59288
-0.432092 -0.336232 7.27061
5.26087 -0.240841 10.6734
2.14825 -0.124679 7.08244
-0.448939 3.8988 7.50226
0.667021 1.67596 9.07308
1.49947 3.53368 7.8692
3.3728 1.78367 9.14482
1.68013 2.84355 8.15217
-0.737298 1.41843 9.19173
3.59717 2.44306 8.72382
3.29716 2.91312 8.27289
1.85794 0.335665 6.92141
-4.11173 -3.84102 12.1149
1.47326 0.0750562 7.01109
-0.85935 3.85384 7.60681
-0.442508 3.90536 7.51701
1.83408 3.07392 7.99133
1.37037 3.49466 7.85871
0.818521 2.93582 8.20097
1.89132 3.16066 7.97556
2.79277 1.5749 9.32348
-0.784276 3.07715 8.11285
2.95418 1.38951 9.36004
4.13957 1.09949 9.69537
2.28496 3.85792 7.57389
-2.60937 2.05625 8.80964
4.77401 -0.343317 10.7082
3.40711 1.78576 9.11766
1.57295 3.43167 7.86267
3.63109 2.04529 8.96802
0.714029 1.89974 8.86017
-1.0099 1.78602 8.98443
1.80638 2.91113 8.15218
