0.869757 2.36484 8.15582
3.61891 2.31285 8.48776
-2.35682 1.85753 8.49431
3.36675 1.16896 9.26272
-3.21272 0.852014 9.24573
4.57887 1.17244 9.30662
0.992442 2.41752 8.15282
4.54297 1.14905 9.31864
3.4391 1.083 9.31882
4.6716 1.14737 9.33223
-2.32178 1.8013 8.50756
4.65267 1.38913 9.15932
1.81396 3.9929 7.12901
3.00261 2.10142 8.52306
4.29562 1.38594 9.17853
3.96855 0.937657 9.42824
1.94786 3.98323 7.13918
4.64321 1.41668 9.16734
0.588339 2.92168 7.84483
-2.86896 0.97149 9.1072
3.38684 2.9705 7.89812
-1.10221 2.65339 7.98858
-1.92344 3.65831 7.26614
4.39044 1.43555 9.10261
1.62242 0.375192 6.64109
4.21291 2.11725 8.67202
1.68404 0.291319 6.60389
2.83904 3.92182 7.17623
0.582468 3.01843 7.79214
4.55151 1.56255 9.06395
4.75958 0.34697 9.91575
-0.728137 2.95836 7.7748
-0.0895387 -1.65795 7.92856
4.16439 0.289077 9.97842
-0.366679 1.25728 8.88585
2.13663 -1.47997 7.82158
1.12108 3.16448 7.71778
1.6717 1.83035 8.61805
2.00216 -0.0182653 6.72639
-1.28328 -1.39505 7.72937
1.26076 -0.122899 6.83345
3.21157 1.89139 8.67039
2.18429 -0.127637 6.79489
4.47828 -0.153831 10.2682
1.18104 -0.19308 6.87342
-0.713448 1.34421 8.81459
-2.44857 1.49417 8.74909
0.874979 3.25538 7.66625
-0.358777 -0.349165 7.00169
-1.96604 -1.10079 7.51897
5.11312 -0.284102 10.3046
-0.424008 2.47947 8.12707
4.34354 -1.26663 10.9004
-0.510515 -0.382369 7.0137
2.42949 -0.259635 6.92058
0.0448306 -0.936367 7.42971
4.37534 1.90406 8.8199
4.8317 -0.990722 10.7377
3.63705 1.82013 8.77165
1.83418 2.65854 8.01807
0.653379 1.59093 8.68441
3.13461 3.55321 7.41793
1.99643 3.93732 7.19719
-0.189559 -0.963423 7.42824
2.59446 1.39175 9.04982
4.9051 0.78739 9.59919
4.69166 0.641693 9.70831
-0.737407 2.05851 8.41325
1.78058 0.265746 6.58968
2.42947 1.63822 8.83148
2.80059 3.96434 7.12302
1.08307 -0.252733 6.89433
1.66783 3.81582 7.34854
2.20564 3.74294 7.29637
3.87135 1.09214 9.37146
4.53888 1.14564 9.30409
-0.792093 3.49841 7.40698
4.50446 1.32417 9.24283
0.869157 -2.41447 8.50095
-0.36894 1.2918 8.88009
1.75445 3.0052 7.76468
0.617015 1.56905 8.73576
0.580127 1.55495 8.70313
3.14392 3.55696 7.39689
3.19972 1.71683 8.83556
2.49724 -2.12014 8.28275
-3.33566 1.29414 8.94723
1.55334 -2.05231 8.22443
1.45702 3.40829 7.55143
1.58665 -2.01831 8.22974
3.11991 1.83892 8.75437
-0.222571 3.23514 7.64434
-0.230195 3.22278 7.65821
3.62765 1.89129 8.78051
-2.53117 1.5086 8.81244
1.16766 -1.66211 7.94017
0.869691 3.26253 7.67168
4.05183 1.94753 8.80006
-1.84663 3.03692 7.6917
-0.736285 3.1234 7.7101
-2.00094 1.23521 8.96105
3.21053 1.89523 8.69251
2.67121 1.51589 8.94255
1.34157 3.22106 7.71019
-2.50181 1.55804 8.76841
-1.40439 2.94228 7.74905
-0.747319 2.97853 7.82793
1.84562 3.08432 7.73848
2.37987 3.11014 7.76306
-2.67896 1.60154 8.68674
2.849 1.32942 9.0514
1.33527 2.95179 7.81699
4.63934 1.40632 9.17327
4.0232 1.34171 9.2188
-2.25045 2.58976 7.94046
4.45666 1.28832 9.24335
2.1378 2.85871 7.89649
0.220752 -0.83183 7.37119
3.40437 1.11185 9.29628
3.4201 2.89317 7.9443
3.18054 2.8634 7.94764
4.13829 2.22866 8.61863
4.35721 1.1475 9.3519
3.80281 2.23034 8.62342
4.17919 2.26667 8.59208
4.07335 1.03754 9.43276
3.45488 0.942617 9.37993
4.05222 0.951114 9.48469
3.97717 0.9483 9.46443
3.43563 0.917263 9.45554
-0.89461 -0.635353 7.15852
2.57157 2.64829 8.07967
2.41137 2.22488 8.43241
-0.796334 -0.462416 7.04489
0.0552359 2.40861 8.11516
1.57114 0.372267 6.61291
1.40589 2.1699 8.40455
4.03248 0.596537 9.74822
-1.14552 -0.375364 7.04047
1.93651 2.22839 8.38676
2.19797 -0.151735 6.83427
1.19614 -0.169699 6.85172
3.96671 2.57563 8.21837
1.83401 0.198363 6.63212
4.7654 0.374529 9.90835
1.77587 1.78234 8.6392
0.915162 4.26407 7.11708
1.35644 4.06448 7.15685
2.82632 3.8951 7.14391
3.45577 3.3802 7.57816
2.79926 3.28791 7.61909
-1.41773 2.95892 7.78073
0.607867 1.5 8.79893
1.84249 3.0732 7.72836
0.588121 2.93228 7.85335
0.742272 2.91985 7.80382
1.27349 2.88933 7.83342
2.13865 2.87104 7.92025
3.20048 2.87987 7.98302
1.41721 2.65438 7.94224
0.464949 2.4804 8.09817
0.0735639 2.42492 8.0953
0.0696499 2.35192 8.15304
0.151959 2.21049 8.25238
4.22245 2.11818 8.69773
3.04299 2.10482 8.55936
4.15075 2.16735 8.67974
3.5985 2.08006 8.6409
4.06472 2.06876 8.72616
0.767705 1.74334 8.58658
-2.53843 1.51126 8.82639
0.620119 1.55373 8.71766
3.25673 1.65601 8.87213
-0.348393 1.32301 8.83867
0.48362 1.30717 8.94039
-0.340462 3.29887 7.57189
4.20779 1.21071 9.33355
4.68075 1.15504 9.35001
3.96034 0.644066 9.68391
1.62852 0.319755 6.58681
1.27829 0.052225 6.77951
-3.31716 -0.232019 9.99103
1.66085 0.0304218 6.68742
1.17313 -0.206753 6.87099
2.41722 -0.186437 6.89026
-0.704702 -0.401144 7.00035
3.75838 1.33176 9.19964
4.52755 -0.499128 10.4561
4.51238 1.33028 9.27186
-1.06607 3.17966 7.59659
0.418009 -0.682443 7.24704
-1.22968 -5.4383 10.3849
4.23131 1.15372 9.33988
4.08998 1.12293 9.33032
3.4369 1.07523 9.29751
0.500431 2.20676 8.23794
1.68603 2.81743 7.89601
-0.42959 4.03188 7.06308
2.19575 2.46027 8.26003
-0.336061 3.74674 7.26833
1.14511 3.14343 7.68732
1.3004 0.0929928 6.75271
1.31858 0.0579139 6.72382
1.594 0.014025 6.68429
3.64885 2.7326 8.08297
2.23347 -0.076846 6.82246
1.78478 2.98699 7.76169
4.56644 -0.234645 10.2544
2.22497 -0.189525 6.83976
1.21597 -3.32993 9.13625
2.8283 3.66865 7.30364
-0.105147 -3.36004 9.22181
4.59594 -0.108167 10.1897
3.54838 2.67246 8.16615
2.77694 3.64008 7.362
3.46318 1.72444 8.78936
0.789255 2.42694 8.17243
4.49961 -0.326606 10.3526
4.53412 -0.445193 10.4402
3.434 2.89716 7.93011
0.291988 -0.878796 7.37724
1.64418 2.83351 7.84677
0.851513 -1.1978 7.61131
1.303 4.21069 7.05293
1.35468 4.06196 7.14072
-0.424096 3.73772 7.22177
0.233895 3.7277 7.31239
-0.273804 3.59077 7.34072
2.61287 3.62623 7.3074
2.78149 3.56774 7.37191
-0.342545 3.29063 7.56002
1.45331 3.40984 7.57251
2.47702 3.33233 7.60743
1.32093 3.20543 7.6769
-0.996239 2.81073 7.85349
1.78002 2.99318 7.77
0.654536 2.9382 7.87598
0.911118 2.86928 7.86599
3.11552 2.99719 7.9121
0.432968 2.76218 7.92577
3.19795 2.87428 7.96204
3.19073 2.80595 8.0065
-1.50641 2.47101 8.11295
0.465966 2.52908 8.05713
0.706648 2.50556 8.1134
-1.49329 -2.13453 8.28157
-0.349396 2.32037 8.16767
3.23074 2.57377 8.18329
-2.46532 1.95781 8.39339
-0.729782 2.04327 8.36401
-2.44518 1.88364 8.45526
-2.46521 1.86799 8.40594
0.394426 2.04106 8.36038
-2.50397 1.84244 8.51744
-2.6944 1.82937 8.4961
1.02118 2.0487 8.38884
3.04672 2.11577 8.58479
-0.765246 1.77264 8.55339
3.57437 2.05116 8.56839
0.671879 1.85218 8.5348
-1.3182 -1.31982 7.68932
4.05743 2.05937 8.69557
-1.03155 1.68602 8.60274
1.76214 1.84559 8.62197
0.447986 1.65574 8.60936
0.504568 1.65393 8.66209
0.128582 -0.903699 7.40609
0.644373 1.60765 8.69092
3.6639 1.78375 8.77786
0.206756 -0.841812 7.37515
2.0209 -0.722821 7.22998
4.35867 -0.905696 10.7107
0.671252 -0.679591 7.23414
2.58621 1.51545 8.87948
-0.791474 -0.498967 7.06926
4.78773 -0.439234 10.3018
-3.199 0.836707 9.25196
4.55978 -0.348158 10.3181
-1.15349 -0.374321 7.06402
-0.416374 -0.303976 7.01865
2.33298 -0.17595 6.92219
1.15251 -0.198574 6.8537
-2.09882 0.774809 9.23145
1.18307 -0.161084 6.8801
1.21618 -0.143882 6.85441
-2.51861 0.648968 9.43709
1.9528 -0.0281104 6.71071
3.96331 0.649496 9.69411
1.40574 0.0802717 6.71948
1.65125 0.241898 6.61748
2.26464 3.92489 7.14406
4.71376 0.605059 9.72905
1.31767 -0.0154527 6.76131
2.00294 3.99655 7.13406
4.33947 1.05188 9.31671
-0.146741 -0.538523 7.1155
1.68021 3.00455 7.74145
-2.92389 0.859867 9.19791
-2.92061 1.83851 8.4894
3.41885 2.27792 8.45763
1.40537 -1.78259 8.04196
-0.000956061 2.32809 8.14707
1.49852 2.38035 8.20413
1.34983 4.04099 7.11815
0.762995 2.25055 8.27287
-2.86837 2.01256 8.40924
2.83169 2.37582 8.40097
1.37265 2.22331 8.344
2.24205 3.88695 7.0955
-0.289941 3.70192 7.34171
1.4321 -2.25965 8.38819
1.33182 -2.20496 8.30851
-2.33075 1.78749 8.55151
2.97288 3.79639 7.25447
3.57932 2.05517 8.60177
2.68434 3.66718 7.32071
2.60947 3.62114 7.30017
-1.54943 -1.62336 7.88841
-0.94044 3.33016 7.5294
2.79321 3.59379 7.42436
1.36135 -1.3484 7.66948
0.756414 1.74753 8.62315
0.433099 -1.3422 7.70798
2.29152 3.48464 7.42333
1.72675 3.46603 7.49649
-0.33993 3.26629 7.53426
1.4493 3.40212 7.60517
1.37777 3.39462 7.59541
1.32156 3.3644 7.57637
0.438883 1.6323 8.57017
3.10228 1.79981 8.69934
3.19794 2.74772 8.01542
0.635799 1.59815 8.67326
0.199722 -0.84799 7.39893
1.31216 3.18143 7.63294
0.447101 -0.687712 7.27415
0.367602 -0.651346 7.19579
1.46823 2.62953 7.94267
0.119973 -0.529206 7.11235
4.51712 -0.50653 10.4226
-0.800111 -0.505386 7.07371
-0.755727 2.93806 7.78163
2.41364 3.11108 7.70312
4.54069 -0.353629 10.2886
3.19338 2.81451 8.02124
-0.247711 1.32572 8.81076
5.05392 -0.237248 10.2807
-1.10537 -0.340509 7.04732
-0.734678 2.85706 7.83376
1.25682 -0.136769 6.81314
3.84911 1.52324 8.98559
0.486421 1.31182 8.93129
1.40399 0.0758309 6.70299
1.56412 0.0848755 6.65991
2.86857 1.39157 9.03632
1.64373 0.236312 6.60181
3.66844 1.38519 9.08132
-0.522459 2.8199 7.92395
1.59596 0.309615 6.61407
4.62796 0.63333 9.6587
-2.27844 2.52207 7.95911
0.767564 2.81313 7.87054
-2.2643 2.58772 7.95631
4.05702 0.990945 9.36205
4.10069 1.05958 9.4157
4.07416 1.11178 9.32815
4.17928 1.13193 9.27402
-0.180234 2.33101 8.20901
-0.209412 3.95402 7.09286
2.01326 2.96586 7.7177
-2.61725 2.22866 8.21914
1.58184 -0.0293662 6.74752
1.2873 -0.202029 6.85421
2.48998 3.76096 7.21618
4.61449 -0.59425 10.5629
-1.6898 -1.90906 8.09347
-0.956878 3.37004 7.47393
4.73106 0.604854 9.79679
1.20671 3.18386 7.69745
1.92321 3.7383 7.23297
2.49544 3.80964 7.306
1.54673 3.94718 7.16526
-1.53303 -3.2656 9.06529
-4.00062 -3.74179 11.573
-1.86807 3.48376 7.38372
2.19367 3.7005 7.28633
1.04563 3.62045 7.37441
-0.0617044 3.49291 7.43836
-0.534405 3.45094 7.42808
2.61681 3.60686 7.29318
2.59756 3.52211 7.41917
2.82261 3.53651 7.44701
2.28348 3.47456 7.41177
-0.662293 3.27113 7.5805
2.88382 3.42979 7.51122
-1.8526 3.0117 7.6683
0.191796 -0.83375 7.29742
-1.41527 2.99583 7.68541
1.99253 3.22577 7.59632
0.371707 -0.657155 7.20374
0.565253 2.98719 7.75993
-0.0235288 -0.512706 7.08479
-1.25132 -0.492051 7.0969
1.17328 2.94664 7.80488
2.01567 2.96784 7.73598
1.93429 2.87836 7.7344
1.73746 0.0111695 6.70092
-3.22266 -0.0512016 9.84629
1.73241 2.78544 7.83794
1.63176 2.61662 8.04367
0.465869 2.51123 8.05182
0.10842 1.17466 8.94006
-2.41221 2.23933 8.22806
-0.242784 1.32966 8.8256
3.22855 2.56078 8.14131
2.87001 2.49278 8.21161
0.12148 2.2654 8.18945
0.501514 1.64565 8.6123
0.881136 2.30255 8.20397
3.49758 1.97172 8.65189
-1.04959 1.65732 8.52628
2.86383 2.44405 8.30146
2.7509 2.43571 8.31602
0.683464 1.81662 8.48512
2.44017 1.99466 8.53584
-0.216503 1.87353 8.49581
2.96469 2.38993 8.30173
1.09619 2.0067 8.39257
2.82945 2.36839 8.37677
-0.766082 1.96893 8.39462
2.41415 2.28201 8.38655
-2.61821 1.93649 8.44069
0.311964 -0.361784 7.17148
-0.155958 -0.534155 7.09903
-1.21247 -0.626907 7.16109
1.38086 2.71401 7.8896
4.57538 -0.576394 10.4999
1.92339 3.77441 7.28752
4.82329 0.0614662 10.1294
-1.26525 -5.48408 10.4406
-0.240658 1.32011 8.7951
1.6699 0.197581 6.59984
1.49561 3.93286 7.20549
-0.262379 3.60844 7.32998
2.20047 3.72011 7.29781
-1.66116 -1.02139 7.47409
-1.27681 -0.898871 7.39161
1.46207 3.47884 7.46689
2.29794 3.51354 7.43134
1.42948 3.4488 7.52306
1.66615 3.41153 7.54301
-1.1101 -0.349188 7.04923
0.375681 3.22631 7.65539
-3.30131 -0.268692 9.97405
1.65156 0.02734 6.7083
1.33998 0.0525953 6.74653
1.41701 0.0786141 6.70344
-1.32563 3.00988 7.6549
-2.90022 0.283572 9.63966
3.99463 0.720874 9.60996
4.00094 0.936683 9.44773
-2.49031 0.642723 9.31322
3.97533 1.04452 9.35053
1.25122 3.11096 7.81724
1.81122 3.06217 7.68726
0.561929 3.00361 7.80073
-3.31675 0.814242 9.25457
-0.693999 1.3495 8.77981
0.526165 1.68978 8.67397
1.21209 2.90869 7.81968
2.73625 2.99022 7.76409
2.75454 2.95217 7.79964
-0.98468 1.70791 8.5797
-0.200265 1.87862 8.51134
-2.2685 2.56905 7.93133
-2.59258 1.92201 8.39384
-0.755066 2.09009 8.41091
1.35671 2.21863 8.34016
2.21949 2.46089 8.21736
3.16259 2.79846 7.95794
3.23144 2.56201 8.12022
1.84439 2.70143 7.95904
0.370395 2.52395 8.06868
0.469794 2.51673 8.04099
-1.51342 2.44341 8.10854
2.81663 2.72142 8.02168
-2.80572 1.73868 8.55716
0.437495 2.94128 7.81387
-4.01335 -3.83429 11.3979
-0.372593 -1.75342 7.91896
-0.0221124 -1.4675 7.7786
-0.933273 -1.45397 7.68999
2.66041 1.47432 8.87609
-0.264473 1.32935 8.8821
-0.711857 1.36292 8.83897
-1.91616 1.40929 8.78094
0.633339 1.59875 8.70405
0.518332 1.68209 8.64825
1.87057 1.78764 8.59152
3.30666 1.96074 8.6042
-0.863092 1.77176 8.59888
2.14531 1.96359 8.50356
-0.139896 1.8849 8.57229
-0.733674 1.87258 8.40386
0.127601 2.27478 8.15879
1.82937 2.69869 7.99877
2.72839 2.94197 7.92821
-0.984274 2.81783 7.82226
1.79459 3.04592 7.76092
2.8761 3.42429 7.50273
-0.652314 3.22956 7.49538
2.59814 3.49078 7.37974
0.440118 3.38303 7.48931
0.0310894 3.47568 7.52585
-0.832982 3.45808 7.41451
2.24824 -0.724379 7.19726
1.15605 2.20398 8.3797
0.444834 -1.34284 7.66505
2.22947 -1.34778 7.66348
0.108401 2.2994 8.26071
0.126111 2.30347 8.23525
0.931365 -1.27285 7.60999
2.13406 -1.4757 7.75085
2.03641 -1.26998 7.60448
1.73762 0.222278 6.58291
2.00952 -0.274417 6.86431
2.18113 -0.276096 6.88284
-0.609017 -1.5724 7.81555
1.70852 2.42615 8.28605
1.83157 0.210782 6.55346
1.10407 -0.225239 6.88193
1.91619 -0.221879 6.79222
3.00795 2.11691 8.5632
1.1686 -0.212623 6.8825
1.74314 -1.90025 8.08561
2.24753 -0.198218 6.847
2.27747 -0.193946 6.84665
1.23397 -0.178343 6.83902
2.35236 -0.511034 7.06191
1.59439 -1.98984 8.11677
1.95288 -2.00354 8.14411
2.29837 -0.159728 6.82619
2.20349 -0.15113 6.79907
1.20534 -0.141943 6.87708
2.11895 -0.129327 6.75902
1.38697 -2.20156 8.28972
2.19399 -0.124729 6.79419
1.85257 0.185586 6.62562
1.39576 -2.25354 8.3
0.638681 1.61373 8.77864
2.04355 -0.0999746 6.76662
1.73644 0.298883 6.60482
2.09641 -0.0938819 6.77727
-0.774063 2.96692 7.86251
1.95817 -0.0851205 6.74226
-0.758588 2.99566 7.86175
1.99463 -0.792505 7.2398
1.69593 0.155836 6.58644
1.78315 -0.00469084 6.69547
0.195483 -0.976734 7.41262
2.5731 -2.77954 8.71713
1.93612 -0.378904 6.9337
1.66783 0.00639757 6.68772
1.59037 0.0160984 6.65488
2.13808 -0.558974 7.06778
1.67353 0.0344628 6.68281
1.71222 0.13835 6.61843
0.919775 -0.555566 7.12101
0.000186692 -0.545987 7.1125
1.31719 0.0637493 6.722
1.6169 0.360303 6.59888
1.19408 -3.033 8.9158
-0.338917 1.33655 8.87794
4.14709 -4.58664 13.1182
1.71769 1.8498 8.66023
1.44527 0.114153 6.67168
1.42292 -3.16737 8.99386
-0.733754 1.36297 8.88427
-1.12066 2.66972 8.03518
0.694731 1.65652 8.69024
-0.979835 2.36336 8.28015
2.4677 2.42762 8.36496
2.50954 2.44707 8.38122
1.91846 -1.74861 7.93615
-0.400122 -1.75521 7.95618
-2.8882 0.975813 9.14291
-0.53544 2.73041 8.01145
1.21679 -0.140009 6.79498
1.38934 -2.14908 8.25463
2.53832 1.39587 9.02966
2.23546 -0.136344 6.78797
1.33099 2.9703 7.87383
1.92654 -0.819529 7.26993
1.75823 0.0152706 6.68271
1.7899 1.81063 8.70178
-0.783907 -0.463856 7.0305
-1.43684 2.97395 7.82287
-1.97555 1.46492 8.8998
-1.66351 -1.03963 7.46805
0.462056 -1.53886 7.8021
1.45481 3.44873 7.63076
1.68873 2.84292 7.95275
-3.92287 0.372353 9.54111
1.14931 -3.97931 9.55222
3.53099 2.82176 8.09742
-2.47032 1.50171 8.79163
0.962037 -3.73719 9.40671
-2.55817 2.69167 7.95358
2.13175 -0.0236696 6.71303
1.54404 -2.60502 8.58041
3.07287 1.75892 8.89805
0.510497 -0.730229 7.23443
2.27435 -5.69302 10.7235
0.471376 -0.662881 7.19767
-0.028651 -0.493647 7.06906
2.15309 -1.16048 7.51154
0.182069 -0.815007 7.29202
-1.9928 -1.20452 7.58731
-0.717068 -0.408979 7.01316
1.47984 -0.376588 6.95552
-0.459043 4.08027 7.13774
2.24129 -0.305543 6.90093
2.38273 -0.261761 6.88343
1.17298 -0.257154 6.9151
1.21444 -0.22529 6.85051
2.41461 -0.22561 6.85169
0.453561 -1.32328 7.63469
1.80647 -1.33707 7.64671
2.22715 -0.181724 6.80878
2.09745 -0.165242 6.78023
1.20411 -0.139864 6.8437
1.65367 -0.845846 7.2829
2.18502 -0.125418 6.7894
2.09302 -0.0954149 6.76557
1.6202 -0.867626 7.29911
0.264962 3.77498 7.45171
2.07599 -0.000317403 6.71161
1.45717 0.0560663 6.70733
1.87139 0.0744398 6.6779
1.44577 0.111368 6.66116
1.85801 0.133182 6.63126
1.58233 0.287136 6.60171
1.8527 0.179938 6.55763
1.82862 0.197355 6.58886
1.93957 0.242495 6.65325
1.75161 0.283853 6.67219
1.5861 0.313641 6.61602
1.17046 -1.66009 7.90266
1.81686 -1.76096 7.93479
1.5037 3.42703 7.6679
3.51209 1.3358 9.22968
-0.338235 1.33398 8.85169
-1.95758 1.45706 8.86005
2.68304 1.54119 9.01292
1.52099 -2.23976 8.33043
1.3778 -2.24951 8.34664
-2.34343 1.81937 8.55674
1.6828 1.86459 8.69346
-1.89618 3.05782 7.7169
-1.88674 3.05267 7.75573
-2.44619 1.91651 8.50262
3.60081 2.11699 8.64473
1.4046 2.18482 8.43698
-2.40938 2.1749 8.34087
1.14629 2.19302 8.34675
2.38717 -2.66445 8.63071
3.49264 2.37966 8.49434
1.46099 2.34977 8.33268
2.12137 2.90602 7.90126
-1.11408 2.68664 8.03304
-1.69625 2.69045 7.96723
3.22518 0.96672 9.41323
2.00522 -2.95154 8.82451
-1.73125 2.6846 7.9862
1.67115 -0.68089 7.16904
-0.11948 -0.581444 7.12047
-0.15205 4.21826 7.06747
-1.64074 2.39992 8.24067
1.17853 2.92352 7.88343
2.9547 2.96086 7.99071
-0.495037 4.09317 7.15286
1.50954 -2.57849 8.54907
2.97969 2.99635 7.9246
3.24442 2.22404 8.60422
2.09834 2.16631 8.47191
0.618517 -0.268281 7.32982
1.62915 3.99516 7.25798
1.4809 2.00408 8.55729
0.477543 1.95585 8.46309
-0.884765 3.80951 7.32755
1.84362 3.10045 7.78573
1.21766 -1.52351 7.76536
-0.148476 -1.5795 7.83477
-2.53154 1.57348 8.82798
1.33662 3.24355 7.76273
1.58767 0.232215 6.61968
0.609764 1.49135 8.77932
-0.177361 -0.961798 7.38473
-0.819625 3.53742 7.48044
2.37613 -1.88305 8.0586
1.71226 0.222299 6.62069
-1.49229 -4.30027 9.77775
0.545499 -0.83467 7.30426
1.22424 -4.01405 9.58646
-0.753392 3.14114 7.7566
0.0883224 2.35601 8.23205
0.180958 -0.816512 7.32997
1.76158 0.138171 6.58527
0.954312 -3.74071 9.3835
0.482794 2.23758 8.3341
-2.63437 2.2262 8.31476
1.39275 0.17064 6.67261
1.87104 0.0196624 6.68722
1.38764 -3.55034 9.20993
-2.34895 2.14506 8.24407
0.0621665 2.36481 8.18641
1.92938 2.22056 8.40168
1.85409 0.186158 6.5981
0.553763 -0.763989 7.26855
-1.63127 2.38892 8.21751
-0.100932 -3.37384 9.09745
1.78591 0.313404 6.57006
0.77798 2.45312 8.24745
0.933695 2.43357 8.20001
0.863773 4.26804 7.17376
3.62094 2.12993 8.68041
0.862604 -1.18972 7.53885
-1.30549 -1.25922 7.58905
1.15076 -3.04069 8.91368
0.750888 -3.01511 8.86339
0.457115 2.5016 8.14465
2.09558 -0.072445 6.75707
-1.20423 -2.9011 8.76357
1.22629 -0.145134 6.80427
2.65145 3.72008 7.45041
2.42216 2.41916 8.30241
0.458018 2.55245 8.12481
2.38232 2.55269 8.12947
0.924407 -0.586991 7.15676
3.48734 0.908593 9.48045
-1.25479 -2.81486 8.74208
2.28871 3.5708 7.48727
3.45434 0.942883 9.39312
-2.70588 1.8006 8.57517
1.08669 1.79965 8.59372
-1.83981 3.68694 7.3634
1.50511 3.41683 7.64706
3.25863 1.76731 8.80663
2.41919 -2.62575 8.61263
0.895865 -0.537081 7.09961
-0.160178 -1.58929 7.86402
-1.80217 3.71196 7.34659
0.268106 3.76761 7.43832
1.4113 2.67632 8.0093
1.1152 -1.63043 7.84845
-0.0773746 -1.64937 7.85423
1.17837 -0.209375 6.82634
0.879915 -2.39435 8.42156
0.863239 3.27883 7.71184
1.70513 -2.32157 8.38901
-1.70323 2.7335 7.96902
1.45357 -2.26972 8.33891
2.1388 2.88663 7.96519
1.66541 3.83851 7.39231
3.57417 1.25999 9.29831
2.01009 -2.13115 8.23688
0.481459 1.30677 8.94876
3.20395 2.86209 8.08406
1.55364 -2.04064 8.13966
1.72652 -2.00465 8.14023
-0.34559 1.32336 8.82979
-1.60524 4.28954 6.9319
1.59893 0.137957 6.65288
-0.359024 3.32401 7.62991
1.69171 2.85497 7.90845
1.72738 -0.0246804 6.64582
-0.527181 -0.438565 7.0213
2.88843 3.47965 7.59551
2.95551 2.95594 7.98187
-2.04849 3.72801 7.31502
-2.30659 2.63388 8.04741
-0.187033 -0.960546 7.40838
3.68239 1.42405 9.14651
-0.967845 2.65795 8.0876
3.20903 2.90482 8.03784
-2.5664 2.57408 8.02879
2.51894 2.64161 8.13092
1.74458 -1.44576 7.68978
2.86475 3.73114 7.47811
-1.09051 3.20598 7.65627
-2.64686 2.24957 8.27318
0.093133 -1.80153 8.01606
0.067375 2.02146 8.42127
2.84488 1.32043 9.01199
1.25151 -2.29204 8.33766
-1.66169 -0.824269 7.2883
2.22523 -1.32973 7.66461
1.85547 0.179569 6.58036
1.72617 0.109517 6.6303
1.84726 0.0255798 6.67489
-1.04547 1.69707 8.64303
2.35305 -0.187715 6.8393
0.948677 -3.74631 9.39512
-2.48158 1.87984 8.43861
0.472086 1.93998 8.44474
1.54326 1.97495 8.56936
1.2921 -3.4214 9.1663
1.48228 2.00825 8.5784
-1.59661 -3.35214 9.11994
3.12607 2.06941 8.70925
2.1846 2.06628 8.57656
1.01999 2.05132 8.39825
0.531843 1.68882 8.64497
1.24041 -3.07756 8.91579
0.448738 1.65773 8.60892
-2.19512 1.63549 8.58233
0.502092 1.64712 8.66541
1.95397 4.0609 7.25619
1.81872 4.05516 7.23847
-2.98603 1.56516 8.74063
2.60852 1.53711 8.94302
-2.10581 2.18802 8.35757
0.237831 1.46742 8.83228
1.9315 2.2294 8.43579
-2.53384 2.19944 8.31053
1.3659 2.26674 8.45341
-0.139816 -2.65779 8.61623
-0.170347 -2.63888 8.61422
-0.359805 1.3296 8.87924
2.84402 1.34332 9.06437
-0.462799 3.80101 7.33618
1.66738 3.82486 7.37895
-0.36067 1.27479 8.92609
-0.590546 2.31844 8.22556
-0.866438 3.71791 7.27237
0.218262 3.75903 7.37448
-0.367638 2.34684 8.23456
-0.835773 3.71914 7.33647
-1.02502 2.36309 8.22719
-0.499844 1.11412 8.75749
0.858337 2.36936 8.19079
2.85971 3.75446 7.44186
-0.918134 3.70283 7.36985
1.12538 3.72667 7.4329
1.92412 -2.25547 8.30343
-3.09907 1.02928 9.16661
1.63564 -2.1956 8.23406
1.20021 3.7078 7.48144
-0.266146 3.64425 7.42192
-1.46895 -2.11734 8.2276
-3.36418 0.845705 9.38707
3.9424 0.857379 9.54387
-2.15423 0.783696 9.35175
0.452516 2.50377 8.1536
2.7921 3.62208 7.47704
-2.56011 0.655205 9.52187
1.77999 -1.87663 8.08193
1.731 0.298638 6.56123
0.520901 2.56442 8.05864
1.52964 0.259444 6.62101
-0.0488225 3.53541 7.48671
2.57641 2.66187 8.14593
1.13907 -1.68846 7.92135
1.18612 -1.62793 7.84942
1.81906 -1.50474 7.74505
-2.55646 2.71314 7.9633
1.96342 -0.0279616 6.70349
3.20511 2.78993 8.08607
-0.945193 -1.42616 7.74344
1.60734 2.8344 8.0574
1.21991 -0.148586 6.81608
2.30357 -0.164603 6.85053
1.28976 -0.163752 6.79908
1.16169 -0.161976 6.83717
1.74475 2.83839 7.95452
1.17983 -0.253222 6.87391
3.20606 2.89664 8.01766
1.07989 -0.288846 6.86932
0.991238 3.34473 7.63701
0.258621 -1.11536 7.49983
0.321665 -1.09776 7.4328
0.901913 2.90005 7.935
0.662889 3.29771 7.6863
0.598762 2.9723 7.93333
0.0528085 -0.937011 7.38462
0.990765 -0.499162 7.02358
1.31529 3.23721 7.74228
-0.782633 -0.500792 7.04535
-0.32099 -0.878213 7.33105
0.304009 -0.878282 7.32197
0.830447 -0.571134 7.16458
0.950986 -0.578379 7.09569
2.02051 3.0291 7.84809
-1.46471 3.05112 7.78247
-0.501813 -0.723535 7.2468
3.3248 3.18003 7.88806
2.12951 3.05816 7.87793
-2.59104 2.63818 8.07268
-0.782312 -2.3822 8.40899
1.67801 3.01981 7.78145
-0.191267 -3.02715 8.86806
-0.743081 2.87217 7.86038
0.144175 -0.903884 7.35411
-1.63252 -1.02293 7.42205
0.437755 -1.34362 7.67798
-1.56466 4.18763 7.01991
-0.489387 4.103 7.15109
-1.58043 -3.33835 9.04654
1.57983 0.0108057 6.67314
2.98987 3.86974 7.38498
1.6536 3.82004 7.38728
0.268279 3.7353 7.39253
-0.360623 3.70488 7.37919
3.15805 3.59332 7.51179
2.28489 3.5659 7.50206
2.29277 3.50651 7.47147
-0.970063 3.38082 7.50492
1.36999 3.43683 7.68428
-0.00359656 2.32884 8.15597
1.62837 -2.22329 8.33311
0.898706 2.89731 7.94683
1.60818 2.77318 7.93421
1.46434 2.65379 8.00305
0.454167 2.51339 8.05321
-2.03692 1.48092 8.85375
0.846942 2.38564 8.25983
3.10944 2.05114 8.66206
-2.87883 2.0061 8.54264
3.55007 2.02606 8.71754
0.932426 1.78868 8.71147
-0.543782 2.84101 7.98747
-2.48622 1.5163 8.73309
1.42758 3.49935 7.63122
2.8471 3.64312 7.51336
-2.87168 1.06572 9.10408
1.47076 3.95423 7.28859
0.947051 -0.576926 7.12599
-2.16659 0.849721 9.25075
-3.21917 0.849205 9.30328
3.93781 0.842613 9.5365
1.61087 0.578473 6.79726
1.29495 4.24534 7.11984
1.76455 0.314758 6.60559
0.468518 -0.679324 7.18151
1.69496 0.270859 6.61504
0.715904 -0.658837 7.14804
0.866886 -0.605764 7.10468
1.31779 0.054263 6.74225
-0.78001 -0.509971 7.01978
-1.23338 -0.486076 7.07354
1.2041 -0.229775 6.84324
-0.0984014 -0.950298 7.43682
2.07328 -0.274455 6.85859
1.63727 0.12833 6.61183
0.3437 -3.38152 9.10012
1.19904 3.219 7.77194
1.56099 0.185693 6.65506
1.60576 0.197614 6.60424
-2.98525 0.895351 9.20616
2.87744 3.44606 7.54797
1.99261 3.27286 7.69116
0.0456616 -0.499097 7.0913
-0.357547 3.78102 7.33372
1.60111 3.95524 7.23426
2.59557 3.57237 7.4943
0.473731 1.3217 8.99927
-2.9247 2.05019 8.51042
-2.45745 2.27495 8.316
0.69938 3.05343 7.87322
-0.081565 -1.33758 7.64153
1.48254 2.35242 8.28728
2.28846 1.72812 8.78955
0.758745 2.24599 8.28769
-1.38047 3.07443 7.77695
-1.31405 4.09197 7.09687
-0.499359 4.09172 7.11622
1.34115 4.09886 7.21192
1.5397 3.99328 7.25474
-0.320314 3.7981 7.29168
2.69918 3.73342 7.41095
2.83756 3.61217 7.46071
-1.90868 3.52925 7.46292
0.0232245 3.5136 7.5828
-1.24077 -2.78345 8.69104
-1.07904 -2.75546 8.67686
1.445 3.40944 7.63925
1.31188 3.20444 7.67909
-0.768368 3.16493 7.78318
-1.90697 3.05626 7.77532
-1.46326 3.04273 7.79313
0.68498 3.05428 7.87095
2.12739 3.0374 7.85988
0.557212 3.01064 7.80648
1.77456 3.01168 7.8491
-0.773151 2.95772 7.83006
0.878991 -2.40699 8.43315
0.607623 2.95305 7.91927
-0.512394 2.812 7.89517
1.72815 2.80931 7.9159
1.54828 -2.29054 8.33946
1.54627 -2.19561 8.22185
3.21669 2.75842 8.04946
-2.28604 2.56555 7.95871
1.54635 -1.97532 8.11517
2.97028 2.40609 8.35477
1.1995 -1.58845 7.80641
1.81114 -1.5108 7.71485
3.50859 2.15192 8.64398
1.00249 2.03896 8.42143
1.09249 2.02019 8.43122
-2.82282 1.98573 8.42959
-2.64231 1.95648 8.48807
3.4877 1.95563 8.59497
-0.744938 1.88558 8.44055
-2.44623 1.87314 8.50426
-2.52671 1.84793 8.55725
-2.35708 1.775 8.58104
3.27628 1.75323 8.93172
-1.07442 1.67122 8.5944
-1.25384 -0.912544 7.32961
0.164521 -0.914903 7.34569
0.626424 1.60689 8.68617
0.199835 -0.830692 7.26623
-0.779918 1.39826 8.84377
-0.709104 1.35409 8.84045
-0.775985 1.31707 8.78987
0.39886 -0.612546 7.12199
0.865186 -0.606213 7.11465
-0.0854705 -0.51877 7.08331
-0.0285244 -0.51543 7.10011
-1.22297 -0.494784 7.0337
-0.177177 1.21017 8.96839
2.19142 -0.301126 6.85432
-3.08701 0.914263 9.14031
1.29026 -0.206016 6.81896
1.59146 0.657639 6.8912
-3.19797 0.830934 9.25335
-2.10374 0.807388 9.25139
1.36256 -0.0858944 6.74802
-3.2309 -0.0507192 9.86184
1.57838 -0.0251907 6.7566
1.55321 0.0905308 6.66143
-2.50144 0.645219 9.37372
1.68603 0.200217 6.63109
-1.25185 -1.38078 7.65408
2.07512 -1.95142 8.10148
-0.675045 1.95442 8.42125
2.03971 2.94044 7.90898
2.01523 3.0038 7.8241
-0.193892 -3.05365 8.9585
3.62929 -4.89624 12.3611
-1.1746 -0.626284 7.07598
-2.90525 0.284703 9.64899
0.916584 -3.83036 9.4127
3.34407 -4.88604 12.2488
3.53066 -4.95157 12.4971
-1.59667 -3.37898 9.16039
1.1306 3.72783 7.44745
1.04039 3.69201 7.47398
-0.296739 3.66661 7.44028
2.80976 3.63676 7.49508
2.30088 3.55784 7.52136
-0.0858987 3.50473 7.43811
1.3209 3.3967 7.59401
-0.957132 3.32369 7.5034
2.82138 3.30806 7.64411
1.18169 3.25666 7.76976
-1.34384 3.02385 7.69506
1.68636 3.04503 7.83313
1.7865 3.02311 7.83992
2.76201 2.98596 7.88129
2.72403 2.92331 7.84301
1.20274 2.93946 7.90307
-0.728176 2.85683 7.82767
0.77707 2.82735 7.87385
1.54945 -1.95861 8.10639
1.56822 2.67019 7.98808
0.466607 2.51253 8.04998
-1.52545 2.45607 8.13787
1.51566 2.41939 8.23668
-1.96327 2.36109 8.25529
1.80599 2.179 8.4891
-2.12884 2.11047 8.29312
3.04663 2.1227 8.59077
2.231 2.08947 8.68348
-1.25396 -0.897269 7.33967
0.938296 1.77805 8.61095
-1.07078 1.66575 8.61935
-2.52101 1.53484 8.84271
0.564418 1.49112 8.73754
-2.47615 1.4901 8.88492
1.15471 -0.19089 6.88705
-0.710761 1.36642 8.8387
1.73938 0.00728762 6.65073
1.65543 0.0262867 6.65061
-2.53668 0.65587 9.41029
-2.54844 0.891303 9.13307
3.43333 1.0833 9.39907
0.285739 3.74309 7.40076
-2.75788 1.56407 8.71195
-0.173564 -3.01299 8.86658
-1.71652 1.62056 8.71505
1.45543 3.52004 7.5513
1.66275 3.46012 7.63199
0.43747 3.43715 7.58416
2.88996 3.40163 7.70011
3.09778 3.29618 7.79373
-0.202841 1.87964 8.52088
-1.88114 3.02746 7.71543
1.4787 3.02247 7.78108
-0.248415 -2.42852 8.48245
1.16892 2.96621 7.84781
0.921701 2.96393 7.84917
-1.01057 2.84165 7.9207
2.82518 2.75369 8.12056
1.80395 -1.725 7.98957
2.20965 2.46514 8.21381
1.98032 3.25506 7.64996
-1.25181 -5.40604 10.1666
-0.89303 3.76333 7.42144
-0.302815 3.64939 7.39536
0.723369 1.75823 8.58221
-0.868558 1.76165 8.60642
-2.96297 1.05141 9.24742
0.173153 -0.834102 7.33733
-0.341091 -1.73585 7.81251
2.27807 3.51803 7.44895
1.17413 3.25015 7.74789
1.74979 3.02122 7.83657
-1.39326 2.96368 7.72275
1.69721 2.84556 7.99717
-0.572133 2.79824 8.05925
1.55334 -1.86577 7.992
2.41774 1.64784 8.83186
-0.356803 1.29796 8.79807
0.113126 1.20134 9.05537
0.891276 -0.558163 7.10356
0.0372801 -0.934488 7.31322
-0.971908 -0.738979 7.2263
-0.017783 -0.500915 7.04706
-0.186052 -3.03527 8.91126
0.030948 3.86535 7.38083
-0.687754 -3.0499 8.85709
1.43015 0.0722971 6.65504
1.73592 0.127261 6.57727
-2.95593 0.298432 9.68075
-1.31121 -1.32039 7.62763
-1.71839 -3.33293 9.16366
1.36195 -1.34867 7.62018
-0.164996 -1.40513 7.75521
-0.325944 3.78495 7.28462
-0.224307 -1.59707 7.86074
-0.732668 1.37965 8.90884
1.73952 -1.87014 8.01319
2.25961 1.70123 8.62257
1.86966 1.79763 8.63523
1.67143 1.83153 8.61692
2.14648 1.98221 8.56389
3.03022 2.09508 8.50117
-2.40669 2.16372 8.30635
-1.23804 -2.01254 8.08428
0.099377 2.31057 8.27881
-0.0253513 2.40294 8.26941
2.219 2.46499 8.24773
0.156956 2.53738 7.99911
1.40051 2.67138 8.03072
1.82681 2.70517 8.03778
0.944284 -2.37267 8.48035
2.40446 3.30253 7.66722
-0.312564 3.38237 7.61375
0.429613 3.41021 7.54068
2.88302 3.45527 7.56107
0.408672 -0.646573 7.15202
1.93562 -0.379443 6.95023
-0.53802 2.73814 8.02243
2.09571 -3.11901 8.9165
1.08317 -0.280967 6.90162
1.92345 -0.3627 6.95265
-0.0395211 -0.504115 7.05276
0.465306 1.93828 8.4502
1.48162 -0.376627 6.98865
1.09715 -2.45193 8.39807
2.5795 -2.13641 8.23659
1.6925 1.80515 8.69975
-0.0685111 -0.987665 7.39657
1.59572 -1.98368 8.05999
2.58226 2.68702 8.18038
1.71171 0.141065 6.63724
1.0976 -0.222649 6.93249
1.10894 -0.22554 6.84837
2.49261 -0.342091 6.97069
1.17914 -0.194236 6.88557
1.65155 -0.849449 7.23501
2.49003 -0.319106 6.97958
2.35072 -0.511115 7.02885
2.23272 -0.285651 6.94126
2.8929 -2.2255 8.42551
3.21908 2.12924 8.64841
2.0931 -0.267864 6.83995
1.15753 -0.163311 6.80054
1.25102 -3.98357 9.50693
1.91687 -0.221775 6.77391
1.60021 -1.95418 8.06023
2.40069 -0.30364 6.92867
1.36076 -0.138423 6.79365
1.86568 -1.61672 7.85524
1.67614 1.8911 8.74461
2.23388 -0.224129 6.809
-0.143249 -1.38504 7.66495
-1.44111 -1.62278 7.80533
1.67223 1.86078 8.71793
2.29103 -0.55133 7.04426
1.16176 -0.432921 7.02772
-2.65428 2.24547 8.29761
-1.43319 2.96832 7.81354
3.00473 2.10814 8.53962
1.76501 1.81733 8.66614
-0.393627 -1.74872 7.94109
3.26524 1.7057 8.93693
1.55706 -0.121315 6.75492
2.28781 -2.5317 8.4877
1.15159 -3.96647 9.50469
-0.380007 -0.297153 6.92445
1.78845 1.81438 8.72506
2.27762 -0.192979 6.83546
2.22802 -0.178721 6.82533
1.39814 -0.086981 6.7483
1.97293 -0.542513 7.02203
2.69448 -2.59003 8.59428
2.1588 -0.152066 6.78303
2.20219 -0.154759 6.78798
2.29641 -0.164398 6.80606
3.89824 1.73992 8.96715
2.11906 -0.129614 6.74857
2.23556 -0.136975 6.80591
-0.921536 4.32124 7.08535
-2.55505 2.68705 7.94767
2.19258 -0.128973 6.76509
3.91875 1.75079 8.96741
0.452571 -1.33754 7.63133
2.09571 -0.0968561 6.7535
0.473337 -1.32201 7.61768
4.04039 2.65759 8.32582
2.20964 1.67335 8.90281
2.4911 -0.118999 6.89793
-2.44461 2.07097 8.3483
0.456261 -1.31673 7.62652
2.46913 -0.102417 6.92044
1.62335 2.84603 7.97907
4.00368 2.68271 8.2854
5.06519 -0.224878 10.413
4.87579 1.42338 9.33392
2.56905 -2.77283 8.67481
1.75436 -0.000812452 6.70686
1.78326 -0.00146759 6.70956
2.68267 1.54364 9.05715
2.09462 -0.0248302 6.74329
1.6281 0.0270666 6.67502
1.31438 0.0690124 6.75668
1.4625 0.0518248 6.66991
0.937936 -1.26896 7.55774
1.93356 0.00965203 6.67786
0.595177 1.63898 8.62954
2.10598 -0.00702451 6.76221
3.0994 2.25246 8.57906
-0.980475 -1.05908 7.44342
1.80019 -1.34364 7.65253
-1.63204 -3.25711 8.9095
-1.1079 -0.338155 7.04648
1.66765 0.0609782 6.62721
2.26301 -0.686828 7.19079
2.52113 -2.49433 8.49218
-2.29659 1.86776 8.52306
0.237897 -1.11988 7.44537
-0.595421 2.76113 7.98271
0.618896 1.58481 8.79941
-0.677161 -0.393783 6.94049
1.88701 -1.27446 7.58695
0.956146 -0.567188 7.12551
1.55997 -1.89579 8.03043
-3.05081 0.737086 9.31164
-0.443584 -0.443842 6.98093
-1.11393 -0.376342 6.97051
1.76901 0.126275 6.60875
4.37541 2.38374 8.65406
2.80912 -2.2983 8.43311
-0.894585 -0.41392 6.95499
-1.75633 2.7036 8.03157
4.08586 -2.66564 11.8518
2.31876 -2.94953 8.82389
0.125594 -2.69748 8.58866
4.32337 -2.89233 11.8967
1.83924 0.202099 6.6567
0.202197 -0.974634 7.38574
0.103822 -0.546114 7.09738
3.14418 3.60199 7.52286
3.28998 1.18152 9.33381
2.17706 -3.00362 8.94268
1.83072 0.21501 6.59161
1.94397 0.21246 6.61345
4.11488 1.07186 9.46453
1.90328 0.227812 6.65316
3.6776 1.87089 8.95667
4.16347 -4.46848 13.0284
1.32517 -2.13269 8.16857
0.208689 -0.903344 7.30625
1.14528 2.14664 8.3802
-0.708369 1.38367 8.8817
4.50955 -4.59655 13.136
-4.24335 -1.91532 11.0496
-0.0489208 -1.636 7.7758
-0.125546 -0.572513 7.09637
-0.370556 -0.548339 7.06994
4.04523 -4.51587 12.9588
2.2777 -0.830689 7.26489
-2.45335 1.5155 8.74717
0.409487 3.41249 7.55891
-2.84598 1.56368 8.79365
0.223659 -0.855222 7.28104
4.11815 -4.53286 12.9407
3.576 -4.46748 12.8937
2.0835 -3.0562 8.85277
-0.361376 0.689127 8.13164
1.71293 0.327173 6.60258
4.17593 2.27524 8.75285
2.01856 -2.22892 8.26708
2.88031 3.21951 7.75699
4.52667 -4.64422 13.1275
-0.367539 1.25693 8.88999
0.474841 -0.661104 7.1743
3.86654 2.34737 8.60737
1.61587 0.367114 6.63072
-0.203198 -0.602403 7.06777
1.62647 0.723875 6.95309
1.37421 -2.23174 8.24903
1.70877 2.42134 8.27523
1.62466 0.435189 6.63552
3.63573 2.33839 8.58296
0.735617 -3.01537 8.84197
-1.24018 -2.93734 8.85625
3.57622 0.780547 9.68808
-2.81077 1.23315 8.97186
-0.388564 -0.648808 7.14723
1.38871 -2.19549 8.25644
-0.365569 -0.663638 7.14362
1.5503 -0.863124 7.30591
2.0968 -0.169069 6.76374
3.23481 0.971079 9.48225
2.07473 -0.823102 7.22288
1.77536 1.279 7.87553
3.01546 1.55579 9.05572
1.996 3.98883 7.28583
1.69897 0.284178 6.58098
3.85877 -4.53564 12.9172
2.41269 2.60455 8.24474
1.8314 2.6998 8.12752
1.13331 3.54036 7.58261
4.45214 -2.37509 11.5649
-3.07068 0.491861 9.5168
5.07695 -0.187048 10.3549
3.80068 1.50197 9.05963
0.775298 1.77466 8.64661
4.71623 1.49286 9.25044
2.14153 -1.37376 7.65391
2.24825 -0.629583 7.12417
-0.232934 -2.39907 8.43665
2.41169 -2.67518 8.62741
1.55591 -2.0253 8.07744
2.57935 -2.13891 8.22283
-1.45335 -1.62833 7.83072
2.12558 -2.00502 8.07591
1.92198 -1.98023 8.11056
0.888661 4.31743 7.21254
1.71095 0.219737 6.58231
1.72938 -1.88437 8.03587
-0.0672926 -1.64827 7.84891
1.27619 -1.76178 7.91134
1.88493 -1.60668 7.80458
1.86674 -1.60126 7.81858
0.0544647 -1.41714 7.75196
1.78386 0.00162189 6.74712
1.86868 -1.53656 7.78545
-1.92684 -1.04782 7.46302
3.11243 2.12076 8.73511
-1.0257 -1.08263 7.43866
1.38036 -2.2116 8.17285
-0.885522 -1.00373 7.33245
-0.0615016 -1.01293 7.41839
-0.468242 4.09638 7.16468
-0.103449 -0.903447 7.30983
3.08547 2.07244 8.63954
-3.10629 1.72318 8.60905
-0.338013 -0.86382 7.32934
0.183227 -0.830349 7.23394
0.65339 -0.840062 7.31256
0.548929 -0.828724 7.35435
0.508896 -0.729192 7.24298
-2.83762 1.11216 8.95976
-1.20783 -0.498399 7.08173
2.4175 -2.61623 8.57269
0.730561 -0.646178 7.14567
-0.779416 -0.463709 7.00258
0.00762637 -0.54578 7.0833
0.871978 -0.594783 7.11228
-0.0150229 -0.493161 7.02244
0.130739 -0.507595 7.0891
-1.12631 -0.37753 6.9992
2.25869 -0.688342 7.15788
1.97745 -0.0133387 6.70164
-0.338902 -0.35651 6.94175
-0.406276 -0.297763 6.99702
2.37278 -0.390742 7.00628
1.14069 -0.260389 6.87464
2.005 -0.273758 6.82091
2.19765 -0.292562 6.85803
-5.07793 -3.93852 10.7763
-3.90665 0.370354 9.51554
2.38212 -0.262246 6.8711
2.2929 -0.211004 6.82799
2.56792 -0.224182 7.02141
2.15934 -0.167592 6.85912
2.22313 -0.160586 6.83606
1.36344 -0.0649893 6.77869
2.30362 -0.158717 6.85245
2.12263 -0.126358 6.78003
2.0406 -0.0949808 6.72813
2.0924 -0.0981385 6.73499
2.12159 -0.080515 6.74207
1.44903 3.4757 7.67641
1.50406 3.43239 7.67204
1.82629 0.0611956 6.63855
1.96349 0.0438427 6.62866
2.17294 -2.97379 8.85302
1.72581 0.116039 6.59421
1.85213 0.188435 6.61629
1.89087 0.210477 6.69136
1.68846 0.240119 6.58088
1.81258 0.261144 6.63773
0.831155 3.33296 7.75519
-2.84009 0.963596 9.03916
1.52414 0.310646 6.60248
-1.54129 -3.31219 8.95524
1.62953 0.325703 6.65272
-1.10881 0.788659 8.45769
1.71389 0.326791 6.58795
1.6193 0.372052 6.66592
0.130328 -2.70824 8.60784
1.62446 0.438186 6.64719
0.139306 -2.7297 8.60105
-0.25714 3.26635 7.75127
3.88885 0.858518 9.6045
-1.91857 1.4358 8.76387
-0.700232 1.34614 8.7837
4.49805 -4.59902 13.1445
4.85176 0.917097 9.70918
-3.30702 1.69867 8.70569
-2.18914 1.62349 8.55484
4.12488 -4.55992 13.0244
3.74042 1.23633 9.33064
-2.32155 1.82275 8.4579
-2.41023 1.88754 8.60641
1.71738 1.85775 8.68136
1.21881 -3.0427 8.82153
0.740513 -3.02 8.87641
4.80708 1.4526 9.31755
-2.41 2.16379 8.30188
0.987358 1.87276 8.65912
4.02727 2.66342 8.35499
1.19846 -0.133744 6.90106
-1.16975 -2.88022 8.67406
3.66984 1.87075 8.94199
-1.8973 3.06068 7.77657
0.413485 -0.647446 7.12803
1.23194 -3.30256 9.05674
3.07845 2.13651 8.67795
3.24641 2.13961 8.69218
1.93544 2.25282 8.47079
4.39206 2.10275 8.76808
-0.504453 2.73851 7.90263
4.64654 -0.3104 10.4117
1.25612 -2.27483 8.23915
2.51532 2.4809 8.46661
2.42144 2.44477 8.36569
4.27786 2.03549 8.85963
-0.49107 4.0879 7.14236
-0.242139 -1.57168 7.86271
0.179758 -0.934123 7.37367
3.64137 2.31808 8.57294
-0.940478 -0.714635 7.1822
4.65533 1.4149 9.29277
-0.336625 -1.72815 7.9061
2.20781 3.79598 7.39362
-2.3117 2.63531 8.0566
3.20548 1.72657 8.88077
1.2347 -2.28544 8.38794
1.4577 2.67735 8.00728
-1.52237 2.50203 8.11634
4.36637 2.03746 8.86152
-0.0630025 -3.32189 9.05557
-0.381429 -0.652703 7.11057
1.62069 -0.865383 7.31045
1.77005 1.8311 8.67898
1.37515 -3.30672 9.01866
0.868081 2.15204 8.44799
1.65498 -0.843777 7.26254
3.65078 1.91391 8.90231
-0.259209 -0.587846 7.07964
0.339008 -0.651502 7.13669
1.48252 1.99904 8.53518
0.853358 -2.46866 8.42136
-0.103617 -0.580651 7.06882
0.477844 1.96034 8.46726
-2.64723 2.24818 8.28131
1.62701 4.02046 7.29967
1.83099 -3.17695 9.00379
-0.934531 -0.413088 6.98639
-2.50269 2.10253 8.42225
2.99422 1.54304 8.96865
0.957304 -0.566814 7.15566
4.87264 1.35165 9.33723
-2.51529 1.99556 8.50142
0.597634 1.64168 8.66592
0.516555 1.64895 8.71709
1.72754 -2.00346 8.11776
2.34403 -2.31836 8.31837
3.94661 -0.897668 10.6989
4.71154 1.17658 9.46797
-0.224031 -1.24509 7.58935
2.35123 -0.51344 7.04647
-0.248335 1.39557 8.84323
-0.391769 1.3579 8.99717
3.98351 0.952122 9.49626
-2.6026 1.54087 8.95335
2.1021 -3.02712 8.79458
3.19405 2.90203 8.03801
1.82441 -1.50157 7.72034
1.3023 -2.10135 8.22074
5.03971 -0.191424 10.2463
-0.760555 3.14877 7.77609
-0.0691797 -1.32125 7.62726
0.0902321 -2.75108 8.65541
2.06961 -2.89544 8.77881
-2.8268 1.19739 9.06651
1.39368 -0.100893 6.7673
1.54275 -0.119409 6.74956
1.56169 -0.12127 6.77305
4.08193 -2.66136 11.8288
0.436403 -1.05485 7.45182
1.22045 -1.51922 7.74314
-0.950606 -3.42642 9.05237
1.52064 0.258887 6.6371
0.242943 3.8251 7.54381
1.10051 -1.60007 7.87612
2.22732 -0.0857412 6.77502
2.93864 2.79942 8.11433
1.69841 -0.0202187 6.7519
1.87184 0.0731594 6.66036
1.44673 0.106401 6.6406
2.47049 3.38439 7.7313
5.15362 -0.199462 10.4674
2.16977 -1.47632 7.74068
1.25505 0.0590985 6.73765
2.98248 3.00694 7.94248
2.13427 -0.0176296 6.73527
-0.785021 3.16858 7.76247
3.52305 2.00577 8.72388
1.42313 -0.59994 7.12798
1.74957 0.286164 6.70744
2.20936 -0.990912 7.38653
4.14775 -4.443 12.9516
1.33817 3.23055 7.73908
-0.0157461 -3.30958 9.02187
3.96612 0.649575 9.72892
4.09664 -1.39458 10.9252
-0.312399 3.81702 7.51955
-3.37164 1.31246 9.01163
4.10328 -4.6059 13.0495
0.0529903 -1.41828 7.70906
1.86562 -1.59688 7.78392
-0.0628218 -1.63942 7.80476
1.50226 3.44399 7.69662
1.36949 3.42367 7.65412
2.1267 -2.01674 8.10914
1.29501 4.2575 7.11893
0.168333 -0.81793 7.38276
-1.29852 -0.595943 7.07533
1.38397 -2.17766 8.19242
0.433796 -0.67936 7.17642
0.67349 -0.67641 7.22947
-0.67131 3.29509 7.60252
-0.688177 -0.398114 6.96259
0.930708 -0.543969 7.08673
-1.05454 -0.334648 6.94043
0.842849 -2.39302 8.38485
3.66559 -0.633025 10.4922
2.20542 -0.288628 6.90868
1.6991 1.82443 8.68151
2.32401 -0.218289 6.84931
2.23192 -0.186694 6.77749
2.33052 -0.186892 6.86405
4.00454 2.68309 8.29572
1.2527 -0.0518243 6.73997
-0.0966914 -2.62106 8.53209
2.23209 -0.0840034 6.83048
1.80765 0.0110189 6.65435
1.85045 0.0221187 6.73534
2.03801 0.0113097 6.71587
1.00321 -3.74047 9.27744
-1.88991 3.04788 7.7031
4.06685 -4.55991 13.1092
1.92733 0.188282 6.59432
1.71354 0.22191 6.6002
1.81553 0.257562 6.60003
1.11098 -2.98498 8.79703
1.67632 0.420058 6.61649
-2.51751 1.55889 8.83197
-0.706773 1.35453 8.80761
-1.73861 2.7588 8.04244
0.0554305 2.41775 8.14976
4.43301 2.14247 8.93453
1.2128 -1.58107 7.8493
-0.852255 1.82834 8.63116
0.71119 1.63991 8.62908
-0.338578 -1.5354 7.69864
-0.136606 -1.57645 7.78017
-0.46112 2.5247 8.24832
0.632179 1.63807 8.847
-0.00216328 -1.46496 7.74138
1.97389 -1.88056 7.98221
-0.938456 1.71195 8.60434
5.40923 -4.64 13.0658
-0.895943 -1.00424 7.36038
0.230956 -1.13058 7.49228
-0.324447 -1.72811 7.89289
-2.52689 1.84831 8.55898
3.56579 1.24798 9.25562
2.49189 -2.10834 8.2097
3.48125 3.44992 7.7082
-0.170668 -0.960278 7.34898
-0.154919 -0.960468 7.3865
2.57347 -2.14425 8.21159
-0.0629747 -0.932621 7.33249
1.39841 -0.0615386 6.77717
1.81624 4.06504 7.23367
4.11572 1.06626 9.47743
4.10209 1.05697 9.56669
0.30432 -0.877708 7.32083
1.221 4.28152 7.15061
-0.796912 4.31027 7.09981
-1.98021 -3.686 9.13761
-0.341935 1.3273 8.82314
4.05387 0.949124 9.49632
-0.260312 1.31615 8.8366
0.553094 -0.764718 7.27104
-0.482877 2.47517 8.20495
2.33624 -2.30465 8.28024
4.03027 0.956549 9.59504
3.70961 -0.599989 10.4228
-0.738902 -3.122 8.7882
3.20593 2.86941 8.09162
1.41818 -2.26005 8.25711
-2.59026 1.53409 8.92849
3.49554 2.38277 8.5333
2.70671 1.55454 8.95078
0.119444 -0.539299 7.0639
-0.0630532 -0.502391 7.06549
1.75609 -2.39144 8.3642
3.89624 0.87162 9.65897
-0.661409 -2.15814 8.24076
4.4761 -4.54855 12.9705
4.26997 2.17929 8.87766
2.41879 -2.6201 8.59211
4.34529 2.35035 8.5744
1.53293 -2.27168 8.30115
2.1217 2.89459 7.86204
1.47536 -0.37366 6.97812
-0.161993 -2.4084 8.36558
1.92033 -0.363779 6.92188
0.561507 3.02791 7.82479
-0.754123 3.12783 7.67608
-2.84327 1.14373 8.9318
1.46111 -3.54936 9.15274
3.21874 2.16745 8.69356
1.62906 0.313955 6.56856
-2.94598 0.994919 9.06308
-1.10205 -2.75799 8.66607
3.26715 1.67806 8.93604
-0.113513 -2.57828 8.50511
1.68212 2.8506 7.98089
3.70132 0.316991 9.93783
1.70163 -0.0258692 6.72147
5.04425 -0.227858 10.3292
3.51381 -4.44477 12.8128
4.00362 2.64275 8.41342
-4.8792 -3.8455 10.6089
-3.20303 0.910692 9.31797
1.63588 0.0642506 6.67325
-3.25193 0.857612 9.34668
1.64139 0.140455 6.66085
1.39345 0.168853 6.66126
1.43357 -1.89311 8.02868
2.0907 0.0644676 6.70058
3.54938 -4.36806 12.8352
4.41033 2.24399 8.67561
-0.261324 3.63193 7.40488
4.09921 -2.67256 11.8925
1.11379 -1.63105 7.86117
-1.14429 -2.65842 8.53502
-1.28415 -1.25277 7.54215
3.11326 1.93153 8.79118
2.51944 2.64326 8.12659
-0.894789 1.79458 8.56999
3.56392 -4.42672 12.7644
-1.03368 -2.53638 8.44188
-2.22768 0.875471 9.40802
0.963606 -3.7157 9.32016
4.37301 2.03676 8.87321
4.1811 0.285767 10.0602
-3.12642 0.493672 9.60092
2.89432 1.413 9.0793
2.12646 -1.4724 7.66536
-0.326465 2.39906 8.28223
1.03542 -3.66386 9.21408
1.81509 -0.137678 6.82395
2.93189 2.78869 8.2136
2.86832 3.74974 7.50103
2.00164 4.05101 7.23417
-1.35416 -4.25206 9.67202
4.04629 2.19133 8.79734
-1.09054 0.781326 8.40829
4.41773 1.4541 9.2309
2.69237 1.92198 8.88685
-2.53559 2.0068 8.55071
3.64065 1.91202 8.84898
1.39653 -2.12761 8.1593
0.557857 -0.831654 7.24441
2.30273 -0.340467 6.90582
0.991612 -0.236649 6.89842
1.2832 3.25522 7.74127
0.936261 2.42314 8.17676
-0.739114 2.05345 8.40866
0.370828 -2.88284 8.70568
1.72596 -2.00218 8.10714
0.987178 2.42615 8.1933
0.435238 -1.05553 7.46853
2.8405 3.96952 7.26508
4.18247 1.17978 9.34814
-1.0915 3.20897 7.65948
3.96208 0.639435 9.71441
-0.279636 -0.626335 7.11007
4.3294 2.10645 8.91548
2.99901 1.54523 8.99998
2.0092 -2.12789 8.20881
1.97289 -0.544331 7.04755
-0.356481 3.77937 7.33061
1.58516 -1.02564 7.45405
-2.06091 1.58147 8.66108
-2.29165 2.61138 8.01433
4.0152 1.37944 9.2854
-3.41749 -0.228666 10.1798
2.89089 2.78831 8.13453
3.06783 2.96148 7.97786
-0.504812 -0.44062 6.95709
1.83357 2.69367 8.1013
3.49133 1.96984 8.62436
1.12698 3.77869 7.51505
2.20568 3.97389 7.26821
2.17198 2.05884 8.58158
0.0694355 2.02941 8.42132
0.772392 2.46852 8.28639
3.46432 0.95159 9.46205
2.76574 -2.46564 8.52813
0.608406 1.49768 8.79226
1.29193 -3.38704 9.06253
2.5035 2.43895 8.38109
2.05766 -1.97688 8.04505
2.07189 -2.89238 8.75447
1.64875 -2.20762 8.26319
2.57544 -2.53416 8.56186
5.14756 -0.28542 10.4108
3.62643 2.5883 8.42926
1.12388 -1.68052 7.92882
3.6486 -0.984032 10.8054
2.94182 3.51202 7.58626
4.68806 1.29426 9.40431
1.69153 2.86076 7.91859
5.42269 -4.52329 13.0287
-0.305659 3.64049 7.45364
2.23075 -0.1555 6.81016
1.56223 0.767564 6.95658
2.16307 -0.171954 6.78141
2.08035 -0.00770367 6.70089
1.62705 0.683951 6.91476
1.59491 0.664518 6.8676
0.207172 -0.815734 7.21093
0.185096 -0.908053 7.35198
1.19162 -4.05313 9.53433
3.61955 2.11474 8.75613
-1.71651 -0.965858 7.38845
-1.01985 -1.08094 7.45003
1.33408 -4.04792 9.54775
1.93208 0.194602 6.62393
0.465919 2.53055 8.0591
1.19008 -1.62204 7.81267
1.5791 0.344702 6.64613
1.95401 4.08809 7.29617
-0.793569 3.00732 7.92914
3.9964 2.61931 8.24732
-2.48286 1.87535 8.43878
2.04779 0.0169202 6.71289
-4.39623 -3.6053 10.8651
-1.17213 -2.88841 8.69646
0.986918 -3.75478 9.31334
0.43337 -0.689975 7.20239
-3.00428 0.753617 9.25966
3.9152 1.73601 8.97275
-0.898738 -0.641839 7.19863
-1.31309 -0.597693 7.10649
3.18278 1.84213 8.75913
3.6483 1.82887 8.90554
0.686309 -0.675346 7.15912
3.64131 1.83978 8.71751
-0.0790036 -0.937725 7.38051
-2.7943 1.18861 8.80593
3.13734 2.0966 8.79112
-1.49623 -3.20146 8.96404
1.50421 0.837691 7.09994
-2.82926 1.10322 8.94051
-3.14003 0.909523 9.27946
4.00575 0.944666 9.51631
4.42836 2.12997 8.91165
4.2105 2.16238 8.82201
0.454954 -1.32828 7.66262
1.80179 0.211772 6.53125
-1.18111 -0.362123 7.01985
-0.694686 -0.409605 6.94156
0.454965 2.49787 8.14043
4.81028 0.90523 9.589
0.850632 -2.37331 8.31357
4.72474 1.41456 9.32547
0.40383 2.56982 8.13516
1.20982 -1.58546 7.84084
2.8669 2.46378 8.36918
3.81393 -0.920445 10.4568
1.59969 0.316436 6.64417
1.73095 0.295846 6.54945
-0.345615 1.26911 8.87321
3.99675 2.61882 8.33744
4.08617 2.72499 8.38965
-0.305334 -1.78081 7.91893
1.56334 -2.05161 8.15245
1.17999 2.94814 7.9253
3.19832 0.920225 9.42758
1.38046 -2.18053 8.22492
1.92403 -2.23773 8.20689
1.77541 3.07446 7.94674
1.4217 -2.27997 8.30325
-1.20872 -2.78104 8.60588
-2.50097 1.84653 8.51274
3.13141 3.04621 8.02752
1.83005 3.13065 7.82863
3.68108 -0.631499 10.5576
0.663383 3.29536 7.68233
1.29421 3.22963 7.68303
2.37793 -2.64267 8.54037
1.56631 -2.57611 8.518
1.17719 -0.258289 6.8809
4.46927 -4.60247 12.9272
-2.177 1.62354 8.54362
1.21567 -0.225938 6.83749
0.914965 -3.88799 9.57602
2.40272 -0.284222 6.93173
2.2027 -0.302701 6.80886
2.16749 -0.285023 6.80441
3.49687 0.927152 9.5968
-0.905614 3.7752 7.3719
1.34387 4.12922 7.2531
-2.46749 2.27735 8.34587
-1.97255 1.21128 8.8697
2.20983 3.99682 7.29722
-3.35536 0.835863 9.34473
1.48622 1.98959 8.5113
1.0234 2.04603 8.37383
-0.739798 -0.50282 6.93479
-0.843332 4.43833 7.16166
3.50794 1.99052 8.68631
4.0672 2.03518 8.95453
0.116332 2.30807 8.27635
0.235633 -1.12971 7.46117
0.346538 -3.39458 9.13261
3.22373 2.11509 8.61867
0.276708 -1.1549 7.44852
2.48521 3.39937 7.74304
4.32564 2.10314 8.89962
-1.81179 3.73605 7.38043
-2.61633 2.07512 8.41862
0.946441 -0.576606 7.13035
-2.9177 1.08885 9.02138
3.52359 -4.45849 12.8874
-0.136041 -1.54273 7.8039
4.10324 -0.99159 10.9427
-2.49077 1.97252 8.44185
1.81954 4.09139 7.27846
3.92748 2.64839 8.34081
-1.45849 -1.62715 7.81068
-2.06751 1.58792 8.67912
-0.852177 1.76445 8.68556
-3.25662 -0.0393543 9.91442
3.56271 1.37934 9.29077
0.725679 1.55591 8.76881
2.532 1.39034 9.02871
0.232842 3.72092 7.31204
0.281826 3.7126 7.34052
-2.73988 1.85407 8.57327
4.12157 1.06473 9.46751
-2.27123 2.21567 8.36142
1.51879 -2.58151 8.53164
3.58199 1.26718 9.34363
-1.59456 4.26883 6.9063
4.33106 1.69382 9.07641
