-1.95262 -2.59242 4.91999
-1.60835 -2.03109 4.55275
-1.53948 -1.88577 4.45656
-1.45889 -1.88591 4.4681
-1.44341 -1.8393 4.42266
-1.47877 -1.83213 4.43227
-1.47796 -1.81739 4.41588
-1.41742 -1.73362 4.35351
-1.41374 -1.71454 4.35066
-1.36554 -1.69278 4.33019
-1.32989 -1.61892 4.29253
-0.825246 -0.924729 3.63866
0.243201 -0.706573 3.47802
-1.1595 0.421888 3.59193
-1.58613 -2.0803 4.5806
-1.41467 -1.75104 4.37721
-2.01723 -2.75717 4.96902
-1.58509 -2.05975 4.57144
-1.61118 -1.97959 4.52162
-1.4973 -1.86634 4.4504
-1.44572 -1.83169 4.42291
-1.464 -1.7587 4.37515
-1.43496 -1.74553 4.36869
-1.36628 -1.67894 4.32927
-1.35605 -1.65563 4.32199
0.65715 -0.891224 3.58595
0.508428 -0.729237 3.53989
-0.12289 -0.499412 3.41066
-0.129015 -0.464149 3.43289
-0.731072 0.0377874 3.82151
-0.332238 0.505469 3.56838
-1.0066 0.730879 3.44194
-0.500304 1.19746 3.18333
-1.64707 -2.06727 4.57794
-1.64067 -1.99445 4.54062
-1.63896 -1.96612 4.51983
-1.55136 -1.91169 4.47094
-1.50487 -1.88332 4.46063
-1.44676 -1.8314 4.42355
-1.47816 -1.82455 4.41527
-1.45203 -1.80789 4.4276
-1.4671 -1.75779 4.37699
-1.42445 -1.7387 4.3774
-1.43761 -1.64839 4.30518
-0.980422 -0.858974 3.61735
-0.155566 -0.48342 3.40308
-0.50379 -0.418584 3.31231
-1.0204 0.558669 3.51777
-1.51293 0.726584 3.42001
-1.45135 0.721992 3.40205
-0.0069781 1.06499 3.30362
-1.62712 -2.04386 4.55166
-1.57893 -2.01827 4.5495
-1.61721 -1.98591 4.54005
-1.53227 -1.96773 4.50853
-1.47603 -1.82261 4.40967
-1.42841 -1.7432 4.38558
-1.37315 -1.68782 4.32702
-0.983139 -0.859372 3.62276
-0.320835 0.0221159 3.87279
-0.736706 0.0381868 3.82277
-0.0587285 0.716182 3.47446
-1.46046 0.72665 3.41584
-0.624164 1.4027 3.0811
-1.6241 -2.01145 4.52384
-1.48328 -1.82694 4.42317
-1.36136 -1.6606 4.33065
-0.848535 0.946143 3.3245
-1.3795 -1.6634 4.3156
0.76562 -0.918589 3.56131
-1.67197 -2.00766 4.54428
1.5774 -1.31454 3.85856
0.610292 -0.907719 3.55746
1.57942 -1.31883 3.87642
-1.65584 -2.0084 4.68534
-1.59491 -1.95974 4.65478
-1.57213 -1.85516 4.58964
-1.50954 -1.84827 4.5988
-1.36935 -1.65415 4.481
-1.27963 -1.37556 4.14771
0.481656 -0.772484 3.63137
0.351648 -0.763835 3.62211
-0.253313 -0.517666 3.49047
-0.271202 -0.4962 3.46964
-0.300836 -0.486361 3.49082
-0.308462 -0.473432 3.48556
-0.434969 -0.422659 3.50459
-0.686893 -0.417354 3.42498
-0.664717 -0.413784 3.43632
-0.732354 -0.38394 3.43294
-0.948438 0.648813 3.66295
-1.51004 0.694172 3.61149
-0.339495 0.866637 3.5498
-0.854166 0.85264 3.52944
-0.685972 0.989592 3.46149
0.628311 1.21095 3.38658
-0.495044 1.09689 3.41862
-0.428114 1.22809 3.33697
0.0414888 -0.693844 3.57665
-1.47893 -1.91813 4.62011
-1.63822 -1.94858 4.66258
-1.4075 -1.79435 4.57465
-1.31306 -1.71759 4.5088
-1.38002 -1.69824 4.50048
-0.854244 -0.977334 3.78614
-0.244922 -0.506815 3.49954
-0.128389 -0.479804 3.58081
-0.327614 -0.462827 3.49086
-0.854475 -0.0791742 3.68963
-1.67948 0.532054 3.70746
-1.73008 -2.15835 4.78922
-1.70403 -2.14454 4.77185
-1.67105 -2.05496 4.71407
-1.50832 -1.99569 4.70893
-1.56145 -1.88336 4.59652
-0.732829 -0.684846 3.61641
-0.150789 -0.539606 3.48381
-0.46636 -0.413206 3.41418
0.219266 -0.404757 3.94886
-1.03817 0.861941 3.5254
0.300134 1.30859 3.33089
0.190496 1.33433 3.31389
-1.97682 -2.70402 5.12235
-1.66321 -2.11259 4.77839
-1.58947 -2.04868 4.71431
-1.68963 -2.03031 4.68579
-1.50417 -1.98631 4.68745
-1.56611 -1.8895 4.61333
-1.58119 -1.87662 4.62475
-1.40704 -1.77917 4.54877
-1.31382 -1.36315 4.15395
0.633785 -0.936936 3.7148
-0.426737 -0.442031 3.55654
-0.549065 -0.448194 4.00025
0.521613 1.27276 3.34672
-0.555473 1.27956 3.30366
-1.657 -1.99219 4.66622
-1.54633 -1.87399 4.58174
1.88873 -1.31597 4.23038
-0.489886 -0.409222 3.39418
-1.9838 -2.71043 5.13487
-1.6564 -2.13898 4.77216
1.56292 -1.3749 4.07724
-0.339318 -0.456738 3.43577
-0.531375 -0.398356 3.46268
-0.820754 -0.0960298 3.64842
-1.68928 -2.18737 4.88441
-0.322618 -0.500815 3.51991
-0.938572 -0.107236 3.69622
-1.62976 -2.18106 4.81194
1.57763 -1.38522 4.10127
-1.33899 -1.70543 4.46675
-0.291017 -0.487812 3.45595
-0.339879 -0.462164 3.49157
-0.151882 -0.545748 3.44587
-0.50618 -0.398765 3.37077
-1.71483 -2.10418 4.66587
-1.69023 -2.09346 4.65617
-0.498271 -0.400174 3.35249
-0.566778 -0.382661 3.36579
-1.0554 0.573444 3.58148
-0.496575 -0.400698 3.3754
-0.539386 -0.379006 3.36671
-0.578673 -0.448895 4.02505
-0.638406 -0.333271 3.32272
-0.163602 -0.539794 3.47292
